ncols 355
nrows 32
xllcorner 116622
yllcorner 6164193.5
cellsize 0.5000000000021828
nodata_value -9999
17.059 17.387 17.301000000000002 17.017 7.603 6.954 5.962 4.292 4.264 4.6850000000000005 4.969 15.976 16.584 16.534 21.86 22.399 25.902 28.91 29.6 29.394000000000002 30.541 30.165 30.060000000000002 30.477 29.878 30.094 28.758 28.984 28.882 29.524 29.975 28.485 27.527 27.453 27.445 27.19 28.759 28.764 28.59 28.942 28.97 28.606 27.277 26.05 27.891000000000002 28.903000000000002 28.626 28.591 28.5 28.889 28.885 28.882 29.572 29.549 29.383 29.644000000000002 29.756 29.993000000000002 30.878 30.395 29.734 29.985 29.01964728978325 27.22 24.737000000000002 24.785 25.167 25.771 26.269000000000002 26.591 26.595 26.644000000000002 27.076 27.501 27.55 27.579 27.571 28.021 28.53 28.572 28.603 27.864 27.788 29.199 29.16 29.973 29.702 28.702 29.205000000000002 29.356 29.197 29.264 29.408 29.264 29.151 28.617 28.086000000000002 28.147000000000002 27.497 26.122 25.305 24.137 21.505 27.334 27.261 20.979 20.506 20.128 20.389 20.035 19.566 18.82 19.241 19.47 19.471 14.236 3.472 3.489 3.4450000000000003 3.467 3.489 3.5020000000000002 3.511 3.507 3.512 3.539 3.517 3.525 4.613 4.867 4.869 4.779 3.5460000000000003 3.561 3.5500000000000003 3.568 3.572 3.5660000000000003 3.563 4.776 24.903000000000002 24.927 23.837 24.12 26.747 26.893 27.093 27.324 27.498 27.677 27.863 28.014 28.245 28.421 29.538 29.61 29.64 29.664 29.675 29.647000000000002 29.6 29.086000000000002 28.883 28.678 28.505 28.341 28.119 27.919 27.785 27.54 27.363 27.195 26.994 26.807000000000002 5.412 5.525 5.353 5.139 5.488 5.4190000000000005 4.979 4.601 4.557 4.5440000000000005 4.689 4.679 4.708 4.735 4.739 4.729 4.715 4.711 4.692 5.766 5.756 5.704 4.687 4.6850000000000005 4.686 4.6850000000000005 4.665 4.66 4.718 4.719 4.7250000000000005 4.7330000000000005 4.617 4.598 4.585 4.6000000000000005 4.606 4.619 5.0680000000000005 5.194 5.079 5.0760000000000005 4.9590000000000005 6.091 6.66 7.736 7.7540000000000004 4.797 6.316 6.972 6.984 4.872 5.156 5.617 4.892 5.535 5.376 4.905 5.371 5.336 5.698 5.636 7.501 7.9030000000000005 8.076 7.854 8.283 7.9670000000000005 8.081 8.138 6.636 6.538 6.113 6.228 5.3180000000000005 5.351 5.3870000000000005 5.175 5.16 4.694 4.682 4.689 4.696 4.67 4.641 4.6450000000000005 4.654 4.635 4.613 4.621 4.622 4.616 4.6290000000000004 4.626 4.623 4.619 4.622 4.618 4.6370000000000005 4.625 4.622 4.63 4.64 4.6370000000000005 4.63 4.616 4.636 4.633 4.633 4.6290000000000004 4.638 4.62 4.63 4.624 4.634 4.63 6.257000000000001 4.631 4.635 4.615 4.623 4.621 4.621 4.627 4.62 4.614 4.621 4.628 4.643 4.643 4.74 4.729 4.744 4.654 4.646 4.691 4.764 4.691 4.698 4.705 4.686 4.664 4.659 4.671 4.674 8.675 8.684000000000001 8.791 8.695 8.729000000000001 9.163 9.302 9.685 9.162 9.224 9.454 8.254 8.056000000000001 7.995 6.695 6.167 4.452 4.448 4.455 4.457 4.441 4.43 4.417 4.413 4.41 4.429 4.436 4.452 4.4510000000000005 4.437 4.437 4.44 4.462 4.4590000000000005 4.452 4.452
7.779 7.868 7.861 7.651 7.65 6.906000000000001 6.812 6.738 4.601 4.751 4.6080000000000005 4.493 15.35 15.436 19.365000000000002 22.237000000000002 22.293 28.711000000000002 29.729 28.905 30.442 29.496000000000002 29.32 28.999000000000002 30.261 29.624000000000002 29.024 28.332 28.694 28.702 28.473 28.607 27.53 27.400000000000002 27.478 28.080000000000002 27.955000000000002 28.436 28.47 28.566 29.075 27.654 27.161 27.487000000000002 27.38 28.900000000000002 28.912 27.904 28.755 28.582 28.609 29.042 29.555 29.36 29.794 29.562 29.2 30.046 29.119 28.431 29.793 28.70664728978325 26.037 4.042 24.641000000000002 24.763 24.585 25.568 26.322 26.398 26.651 26.727 26.125 27.085 27.345 27.378 27.632 28.034 28.385 28.287 28.752 29.011 29.184 29.678 29.661 29.37 29.197 27.961000000000002 28.016000000000002 27.862000000000002 27.812 29.621000000000002 29.505 29.303 29.17 28.444 28.297 28.26 27.475 25.97 24.802 27.386 27.350647289783254 27.305 27.192 22.067 20.683 20.175 20.493000000000002 20.458000000000002 19.531 19.833000000000002 19.703 19.531 19.384 3.492 3.528 3.487 3.446 3.459 3.473 3.482 3.496 3.515 3.501 3.509 3.5100000000000002 3.5 4.44 4.545 4.609 4.311647289783245 4.352647289783249 3.551 3.548 3.5580000000000003 3.557 3.568 3.557 4.815647289783243 4.956647289783248 24.879 23.832 23.835 26.657 26.907 27.086000000000002 27.219 27.438 27.643 27.791 28.037 28.155 28.417 28.611 29.589000000000002 29.632 29.682000000000002 29.684 29.650000000000002 29.631 29.552 28.909 28.703 28.503 28.364 28.161 27.965 27.769000000000002 27.609 27.405 27.217000000000002 27.038 26.839000000000002 26.683 5.394 5.465 5.347 5.205 5.2170000000000005 4.961 4.604 4.549 4.5520000000000005 4.617 4.683 4.7090000000000005 4.711 4.737 4.724 4.714 4.7 4.6930000000000005 5.753 5.769 5.6930000000000005 4.676 4.676 4.711 4.712 4.749 4.955 5.245 5.3420000000000005 5.223 5.1290000000000004 4.66 4.591 4.574 4.5840000000000005 4.595 5.062 5.106 5.215 5.247 5.027 4.966 4.924 4.769 7.547000000000001 4.836 4.8260000000000005 6.579 6.907 6.995 4.874 4.873 5.367 5.4830000000000005 5.62 7.4910000000000005 7.3500000000000005 5.2940000000000005 7.3180000000000005 7.695 6.8100000000000005 4.843 7.957 7.922000000000001 7.5120000000000005 7.021 7.946 7.8340000000000005 4.947 4.9830000000000005 6.140000000000001 6.1850000000000005 6.022 5.253 4.692 4.815 4.682 4.68 4.679 4.664 4.664 4.663 4.658 4.658 4.6530000000000005 4.64 4.633 4.62 4.616 4.632 4.636 4.631 4.626 4.64 4.63 4.616 4.627 4.641 4.622 4.609 4.602 4.619 4.618 4.62 4.61 4.618 4.631 4.62 4.618 4.644 4.644 4.635 4.64 4.634 4.628 6.246 6.6160000000000005 6.144 6.15 6.151 4.626 4.612 4.603 4.623 4.631 4.619 4.652 4.649 4.664 4.656 4.6610000000000005 4.758 4.765 4.7 4.751 4.744 4.712 4.691 4.7010000000000005 4.6930000000000005 4.695 4.671 4.668 4.668 8.766 8.892 8.99 9.222 9.131 9.921 9.516 9.252 9.165000000000001 8.993 8.499 8.201 8.216 6.59 6.4190000000000005 4.472 4.454 4.446 4.457 4.44 4.447 4.426 4.401 4.4190000000000005 4.416 4.431 4.445 4.441 4.44 4.4350000000000005 4.429 4.441 4.4430000000000005 4.453 4.463 4.442
7.823 7.878 7.815 7.509 7.339 8.489 6.923 6.845 6.615 4.51 4.534 4.423 15.349 16.825 17.548000000000002 17.886 28.384 28.673000000000002 28.988 28.968 29.428 29.604 29.731 29.925 29.837 28.740000000000002 28.349 28.328 27.238 28.322 28.517 28.605 28.523 28.565 27.517 27.574 28.161 28.211000000000002 28.333000000000002 29.009 28.740000000000002 28.400000000000002 28.36 27.803 27.749000000000002 27.968 27.653000000000002 27.987000000000002 28.369 29.447 29.083000000000002 29.001 29.016000000000002 29.995 29.867 29.565 29.419 29.159 30.011 29.928 28.462 28.742 26.001 25.898 4.0520000000000005 24.23 24.686 24.483 26.207 26.282 25.357 25.578 27.627 27.135 27.406 27.434 27.271 27.497 27.826 28.176000000000002 28.846 29.263 29.373 29.438000000000002 29.653000000000002 29.496000000000002 29.468 29.217000000000002 29.279 27.93 27.937 29.41 29.548000000000002 29.357 29.104 29.243000000000002 29.491 28.419 27.241 27.339000000000002 27.654 27.676000000000002 27.69 27.527 27 26.338 21.766000000000002 20.142 19.924 19.809 19.553 19.711000000000002 19.638 19.216 19.074 15.063 9.88 9.822000000000001 3.447 3.4370000000000003 3.461 3.469 3.495 3.492 3.511 3.516 3.5100000000000002 3.519 3.495 4.4456472897832455 4.635647289783243 4.699647289783243 4.547647289783249 3.551 3.5420000000000003 3.551 3.564 3.544 4.816 5.11464728978325 4.866 24.903000000000002 24.936 23.828 26.636 26.824 27.014 27.222 27.386 27.587 27.777 27.985 28.133 28.372 28.560000000000002 29.594 29.616 29.657 29.682000000000002 29.672 29.592000000000002 29.588 28.969 28.797 28.589000000000002 28.375 28.242 28.026 27.848 27.641000000000002 27.51 27.263 27.064 26.92 26.674 5.346 5.412 5.016 4.869 4.607 4.652 4.551 4.543 4.541 4.549 4.6610000000000005 4.7010000000000005 4.7090000000000005 4.698 4.716 4.706 4.699 4.679 5.678 5.757000000000001 5.705 5.136 4.782 4.955 5.2410000000000005 5.1690000000000005 5.205 6.0920000000000005 5.373 6.689 5.2170000000000005 5.134 5.178 4.567 4.564 4.593 4.599 5.001 4.978 5.28 5.016 4.954 6.227 6.0440000000000005 4.801 4.801 4.815 6.756 6.853 6.92 4.866 4.846 4.93 5.644 6.577 8.211 7.273000000000001 7.079 7.465 7.541 7.083 6.691 6.823 5.848 5.532 6.3790000000000004 5.889 5.0520000000000005 4.904 4.749 4.729 4.738 4.665 4.674 4.675 4.68 4.67 4.667 4.663 4.6930000000000005 4.6690000000000005 4.674 4.664 4.646 4.632 4.634 4.63 4.6290000000000004 4.621 4.617 4.626 4.636 4.621 4.626 4.626 4.62 4.609 4.609 4.607 4.615 4.607 4.6080000000000005 4.611 4.605 4.62 4.62 4.614 4.6290000000000004 4.624 4.632 4.6610000000000005 4.634 4.613 4.624 4.613 6.327 6.727 6.5600000000000005 6.6080000000000005 6.445 6.232 4.613 4.616 4.626 4.619 4.634 4.65 4.664 4.667 4.639 4.655 4.66 4.758 4.73 4.76 4.706 4.707 4.705 4.71 4.703 4.689 4.684 5.223 5.274 8.742 8.751 8.978 9.911 9.757 10.866 9.665000000000001 9.540000000000001 8.926 9.008000000000001 8.581 8.581 6.37 6.567 6.594 4.468 4.446 4.446 4.452 4.444 4.436 4.42 4.422 4.415 4.4270000000000005 4.4350000000000005 4.432 4.428 4.4190000000000005 4.45 4.444 4.424 4.438 4.444 4.457 4.449
20.378 8.718 8.687 8.394 8.351 8.417 8.221 6.827 6.781000000000001 6.548 4.147 4.195 4.149 17.581 17.578 17.213 18.429000000000002 28.403000000000002 28.558 28.969 28.931 29.818 29.952 29.618000000000002 28.687 29.128 29.066 27.663 28.655 28.92 28.439 28.978 28.85 28.568 27.692 27.612000000000002 27.713 28.049 28.142 28.533 28.914 28.62 28.364 28.634 25.683 26.102 25.457 28.041 29.139 29.299 28.899 29.144000000000002 29.045 30.083000000000002 29.749000000000002 29.44 29.309 29.5 29.5 29.418 29.43 29.025000000000002 25.747 25.833000000000002 4.035 16.402 25.384 26.76 27.083000000000002 26.978 27.009 27.672 27.749000000000002 27.545 27.079 27.21 27.269000000000002 28.102 28.009 28.244 29.287 29.332 29.349 29.301000000000002 29.269000000000002 29.457 29.426000000000002 29.452 29.229 28.456 28.944 29.129 29.3 29.439 29.313 29.904 29.685000000000002 29.426000000000002 28.178 27.990000000000002 27.884 28.213 28.801647289783247 28.338 27.418 26.469 24.372 20.192 20.098 19.923000000000002 19.67 19.555 19.511 19.216 19.149 16.493000000000002 14.265 9.802 3.47 3.435 3.452 3.461 3.481 3.48 3.484 3.507 3.505 3.498 3.521 4.645647289783248 4.7836472897832465 4.7936472897832445 4.451647289783246 3.532 3.548 3.5420000000000003 3.545 3.568 4.88 4.964647289783244 5.015647289783246 24.874 24.88 23.854 26.642 26.830000000000002 26.961000000000002 27.156 27.36 27.544 27.743000000000002 27.922 28.123 28.327 28.489 29.571 29.636 29.648 29.662 29.673000000000002 29.652 29.597 29.052 28.84 28.617 28.436 28.274 28.085 27.896 27.655 27.511 27.316 27.158 26.927 26.755 5.235 5.297 5.143 5.566 5.14 4.917 4.541 4.551 4.546 4.524 4.672 4.6610000000000005 4.696 4.705 4.696 4.696 4.696 4.68 5.582 5.64 4.728 5.249 5.2010000000000005 5.2090000000000005 5.272 5.234 6.148 7.103 6.641 6.559 6.343 4.723 5.097 4.572 4.564 4.567 4.583 4.589 4.985 5.091 6.305 6.579 6.849 6.533 6.563 4.822 4.841 4.94 4.835 6.5040000000000004 4.8500000000000005 4.83 4.82 6.931 8.288 8.449 7.83 7.361 8.889 9.13 7.607 7.077 7.148000000000001 6.034 6.034 5.923 5.633 4.721 4.742 4.722 4.707 4.69 4.6690000000000005 4.651 4.655 4.672 4.654 4.67 4.6690000000000005 4.69 4.692 4.675 4.663 4.664 4.656 4.635 4.628 4.626 4.635 4.624 4.624 4.62 4.621 4.611 4.606 4.606 4.587 4.605 4.6000000000000005 4.604 4.62 4.649 4.624 4.6450000000000005 4.641 4.622 4.621 4.619 4.612 4.634 5.62 5.674 5.877 4.61 6.224 6.485 6.894 6.985 6.8340000000000005 6.5 6.21 4.658 4.642 4.6290000000000004 4.626 4.6290000000000004 4.657 4.647 4.656 4.658 4.649 4.654 4.6530000000000005 4.668 4.73 4.747 4.734 4.708 4.718 4.706 4.696 4.7010000000000005 5.4110000000000005 4.686 8.814 8.746 9.343 9.987 10.25 10.787 9.641 9.715 9.74 9.063 8.863 8.66 6.673 6.71 6.625 4.464 4.455 4.455 4.445 4.446 4.441 4.425 4.41 4.406 4.425 4.436 4.434 4.439 4.444 4.4590000000000005 4.438 4.448 4.441 4.442 4.454 4.438
20.613 8.700000000000001 8.654 8.342 8.334 8.237 8.246 7.67 6.641 4.7010000000000005 6.221 6.297 7.913 10.341000000000001 16.949 17.073 18.026 14.450000000000001 18.597 25.073 28.993000000000002 29.115000000000002 28.121000000000002 28.174 29.164 28.911 29.315 28.554000000000002 28.671 28.792 28.75 28.965 28.846 28.532 27.808 27.821 27.472 28.009 28.138 28.624000000000002 28.545 28.580000000000002 28.128 28.748 28.303 27.863 25.549 27.454 29.081 28.942 29.356 29.252 29.815 29.769000000000002 29.628 29.558 29.229 29.459 29.521 29.059 29.341 28.898 26.976 25.989 25.987000000000002 25.585 26.219 27.073 27.189 28.907 29.034 27.974 27.763 27.55 27.07 27.289 27.328 28.071 28.818 28.519000000000002 29.025000000000002 29.406000000000002 29.383 29.32 29.284 29.397000000000002 29.175 29.262 29.217000000000002 28.45 30.033 29.735 29.27 29.301000000000002 29.553 29.816 29.648 29.172 28.97 27.962 28.019000000000002 28.976 28.904 28.337 28.32 26.334 26.283 25.359 19.581 19.824 19.844 19.79 19.451 17.632 17.6 17.593 16.979 17.019000000000002 16.695647289783246 3.422 3.451 3.459 3.464 3.474 3.495 3.494 3.5060000000000002 3.52 3.501 4.219647289783246 4.8006472897832495 4.80664728978325 4.480647289783249 4.253647289783245 3.553 3.541 3.541 3.5460000000000003 4.7090000000000005 4.993647289783247 4.9086472897832465 4.6290000000000004 24.886 23.843 23.851 26.712 26.931 27.126 27.329 27.486 27.675 27.893 28.032 28.196 28.466 29.565 29.603 29.661 29.678 29.683 29.632 29.602 29.060000000000002 28.874000000000002 28.687 28.52 28.267 28.12 27.937 27.738 27.5 27.396 27.204 26.988 26.82 5.239 5.344 5.242 5.078 4.6000000000000005 4.775 5.175 4.554 4.537 4.5360000000000005 4.655 4.683 4.682 4.705 4.695 4.689 4.683 4.687 4.67 4.66 6.252 6.219 6.257000000000001 6.127 6.298 6.23 6.431 7.043 6.898000000000001 6.5360000000000005 6.441 5.996 4.559 4.559 4.557 4.567 4.565 4.561 6.6530000000000005 6.846 7.667629131136621 6.964 6.896 6.623 4.803 4.8180000000000005 4.805 5.319 6.537 5.146 6.178 6.654 6.705 8.512 8.558 8.421 8.56 8.718 8.964 9.011000000000001 8.643 8.274000000000001 7.01 4.66 4.727 4.769 4.697 4.715 4.722 4.711 4.688 4.654 4.638 4.65 4.649 4.649 4.676 4.663 4.678 4.688 4.676 4.682 4.667 4.656 4.636 4.644 4.634 4.625 4.624 4.611 4.607 4.603 4.616 4.619 4.609 4.599 4.601 4.62 4.618 4.641 4.639 4.642 4.643 4.642 4.6370000000000005 4.631 4.63 5.735 5.8180000000000005 5.719 5.801 5.692 5.886 4.642 5.803 6.573 6.989 6.846 6.796 6.6370000000000005 6.186848383568439 4.656 4.657 4.6450000000000005 4.636 4.632 4.638 4.66 4.662 4.662 4.655 4.641 4.631 4.64 4.631 4.68 4.743 4.751 4.718 4.72 4.716 4.697 4.69 4.704 8.739 8.525 8.996 9.957 9.806000000000001 10.103 10.189 9.887 9.115 9.373 8.758000000000001 7.04 7.019 6.631 4.4590000000000005 4.476 4.458 4.449 4.44 4.445 4.458 4.415 4.418 4.414 4.409 4.425 4.452 4.449 4.442 4.441 4.446 4.4510000000000005 4.457 4.449 4.45 4.456
20.184 8.547 8.483 8.545 8.411 8.278 8.248 8.307 7.9830000000000005 7.84 8.139 8.43 8.764 8.075 7.751 7.559 12.551 14.356 11.461 21.659 25.121000000000002 29.060000000000002 25.807000000000002 28.153000000000002 29.158 28.929000000000002 29.011 28.747 28.998 29.019000000000002 28.718 28.933 28.463 28.246000000000002 28.132 27.94 27.533 28.918 28.932000000000002 28.897000000000002 28.695 28.198 28.302 28.39 28.207 27.977 26.749000000000002 26.281 29.103 27.735 29.128 29.196 29.79 29.885 29.918 28.746000000000002 28.871000000000002 28.586000000000002 28.774 29.132 28.844 29.063 29.044 26.015 26.056 26.359 26.560000000000002 26.458000000000002 27.546 29.14 29.066 28.844 28.392 27.762 27.316 27.289 27.5 28.248 28.951 28.664 29.048000000000002 29.521 29.531000000000002 29.102 29.454 29.243000000000002 29.025000000000002 29.09 28.992 29.895 29.814 29.64 29.407 29.364 29.259 29.650000000000002 29.739 29.062 28.798000000000002 28.475 28.811 28.772000000000002 27.900000000000002 27.974 27.894000000000002 26.565 26.085 25.490000000000002 19.685 19.181 19.556 19.688 19.488 17.424 17.933 18.097 18.157 16.934 16.591647289783246 3.434 3.44 3.455 3.462 3.46 3.477 3.495 3.5020000000000002 3.517 3.5 3.49 4.780647289783246 4.787647289783244 4.767647289783248 3.5140000000000002 3.524 3.547 3.5420000000000003 3.551 3.536 4.842647289783244 5.030647289783246 4.783 24.906 23.829 23.844 26.694 26.848 27.082 27.241 27.411 27.609 27.801000000000002 28.025000000000002 28.215 28.354 29.457 29.595 29.632 29.671 29.675 29.591 29.342000000000002 29.102 28.974 28.739 28.544 28.357 28.154 27.962 27.776 27.596 27.395 27.227 27.047 26.911 26.673000000000002 5.285 5.301 5.207 5.505 4.7010000000000005 5.417 4.539 4.5280000000000005 4.525 4.526 4.656 4.674 4.692 4.679 4.6850000000000005 4.676 4.673 4.663 4.659 6.311 6.817 6.8100000000000005 6.368 6.498 6.422 6.886 6.864 6.864 6.7860000000000005 6.6000000000000005 6.731 4.58 4.564 4.545 4.554 4.564 6.563 6.6770000000000005 7.309 7.468 7.4670000000000005 7.3580000000000005 6.806 5.63 4.807 6.65 6.666 6.6770000000000005 6.579 9.153 9.136000000000001 8.645 8.49 8.642 8.438 8.335 8.844 8.852 8.763 8.894 8.749 6.9830000000000005 5.548 5.396 4.687 4.69 4.696 4.706 4.683 4.64 4.658 4.647 4.6450000000000005 4.667 4.663 4.668 4.667 4.6610000000000005 4.664 4.672 4.6610000000000005 4.671 4.646 4.618 4.614 4.612 4.607 4.593 4.603 4.6080000000000005 4.61 4.632 4.602 4.624 4.602 4.601 4.621 4.6290000000000004 4.628 4.6530000000000005 4.6450000000000005 4.633 5.73 5.744 5.7410000000000005 5.7540000000000004 4.648 5.046 4.932 4.651 4.97 6.009 6.0920000000000005 6.328 6.597 6.688 6.792 6.6530000000000005 6.404 5.84 4.651 4.655 4.6530000000000005 4.642 4.634 4.641 4.644 4.658 4.6530000000000005 4.632 4.641 4.632 4.631 4.6290000000000004 4.619 4.659 4.741 4.748 4.736 4.728 4.714 4.695 4.7010000000000005 5.228 5.256 9.482 9.255 9.865 10.476 10.586 9.18 8.929 8.967 7.296 7.239 6.913 6.671 4.4430000000000005 4.474 4.477 4.444 4.442 4.457 4.444 4.441 4.414 4.407 4.4110000000000005 4.447 4.448 4.452 4.46 4.45 5.407 5.452 5.401 5.3260000000000005 4.446 4.439
19.691 8.074 8.266 8.287 8.164 8.116 8.314 8.532 8.551 8.503 8.041 8.725 8.790000000000001 8.636000000000001 8.355 8.28 7.218 11.248000000000001 19.428 19.477 25.361 25.212 25.799 27.719 28.565 28.35 28.385 28.214000000000002 28.646 28.94 28.608 28.579 28.504 27.963 28.299 28.356 27.583000000000002 28.838 28.796 28.639 28.448 28.383 28.266000000000002 28.083000000000002 27.998 27.332 26.596 26.215 25.794 29.397000000000002 29.222 29.117 29.209 29.943 29.932000000000002 29.828 28.201 28.628 27.639 27.803 28.662 28.911 28.809 26.027 27.717000000000002 26.534 27.662 28.409 28.728 28.753 29.005 28.957 28.492 28.531000000000002 28.309 27.19 27.608 27.708000000000002 28.751 28.7 29.112000000000002 29.5 28.803 28.929000000000002 29.257 29.217000000000002 28.937 28.863 29.824 29.774 29.818 29.377 29.368000000000002 29.426000000000002 29.184 29.501 29.643 29.118000000000002 28.983 28.714000000000002 28.578 28.316 27.953 27.934 27.904 27.626 26.328 25.98 23.223 19.289 19.147000000000002 18.546 17.413 17.286 17.851 18.226 18.191 16.941 16.818 3.44 3.422 3.43 3.44 3.463 3.455 3.473 3.499 3.5 3.488 3.49 4.717647289783244 4.743647289783247 4.680647289783245 4.400647289783244 3.517 3.532 3.5300000000000002 3.545 3.541 4.893647289783246 5.182647289783247 4.938647289783248 24.901 24.873 23.844 26.673000000000002 26.822 26.98 27.204 27.436 27.568 27.75 27.939 28.136 28.358 28.521 29.574 28.913 29.060000000000002 29.323 29.487000000000002 29.41 29.174 28.95 28.791 28.581 28.383 28.259 28.037 27.807000000000002 27.649 27.426000000000002 27.292 27.081 26.917 26.719 5.3660000000000005 5.351 4.712 4.565 4.53 4.5200000000000005 4.531 4.522 4.532 4.524 4.648 4.667 4.684 4.68 4.678 4.681 4.674 4.651 4.654 6.098 6.913 6.877 6.654 6.658 6.336 7.107 6.8790000000000004 6.881 6.993 7.2 7.299 5.839 4.565 4.534 4.543 4.555 6.764 7.189 7.288 7.4030000000000005 7.421 7.9190000000000005 6.78 7.187 6.938 6.716 7.445 7.126 6.571 9.048 8.831 9.133000000000001 9.359 8.71 8.849 8.856 8.917 8.767 8.967 8.803 7.931 7.892 5.626 5.364 4.646 4.65 4.663 4.651 4.6690000000000005 4.652 4.648 4.658 4.66 4.6530000000000005 4.674 4.675 4.656 4.667 4.651 4.6450000000000005 4.636 4.616 4.615 4.612 4.604 4.603 4.612 4.604 4.605 4.619 4.615 4.627 4.642 4.622 4.614 4.609 4.609 5.572 5.743 5.722 5.684 5.8740000000000006 5.714 5.156 5.139 5.244 4.6530000000000005 4.65 4.6530000000000005 4.647 4.652 4.658 6.321 6.0920000000000005 6.261 6.4350000000000005 6.273 6.1370000000000005 5.8870000000000005 4.665 4.66 4.659 4.652 4.652 4.643 4.625 4.658 4.65 4.63 4.65 4.618 4.626 4.624 4.606 4.612 4.594 4.633 4.64 4.654 4.746 4.748 4.712 4.745 5.216 4.741 7.417 7.407 9.368 10.007 10.609 9.203 8.032 7.172 6.828 7.255 7.093 6.93 4.635 4.464 4.466 4.448 4.464 4.453 4.448 4.442 4.4350000000000005 4.421 4.433 4.4430000000000005 4.4510000000000005 4.4590000000000005 4.457 5.541 5.697 5.65 5.788 5.759 5.686 4.45
7.565 8.064 8.18 7.867 7.944 8.456 8.388 8.835 8.552 8.42 7.948 8.779 9.27 9.304 8.803 13.519 13.636000000000001 13.612 19.501 20.637 20.709 25.437 28.26 28.351 29.087 28.991 28.593 28.408 29.351 28.417 29.479 28.499000000000002 27.951 28.432000000000002 28.257 28.369 29.424 29.249000000000002 29.627 29.613 28.181 28.325 28.251 28.156000000000002 27.575 27.515 26.302 26.637 26.861 25.773 29.087 28.914 28.717000000000002 29.554000000000002 29.292 29.611 27.517 28.034 27.809 28.36 27.367 27.637 27.895 26.011 27.803 27.768 27.887 29.284 28.88 28.66 28.543 28.449 28.913 28.894000000000002 28.721 28.118000000000002 27.990000000000002 27.843 27.959 29.47 28.714000000000002 29.102 29.365000000000002 28.876 29.172 29.165 29.301000000000002 28.824 29.424 29.659 29.772000000000002 29.261 29.333000000000002 29.478 29.126 29.599 29.601 29.102 29.018 28.798000000000002 28.596 28.77 28.631 27.785 27.655 27.723 26.348 26.288 25.623 23.96 18.216 17.681 16.096 16.95 17.845 17.786 15.061 15.037 14.635 3.459 3.38 3.411 3.431 3.443 3.458 3.47 3.487 3.494 3.489 3.482 3.900647289783244 4.0436472897832445 3.4450000000000003 3.444 3.503 3.5140000000000002 3.517 3.529 3.537 4.933647289783245 4.966647289783246 4.997647289783245 24.854 24.876 23.854 23.856 26.803 26.97 27.096 27.369 27.553 27.725 27.912 28.117 28.287 28.494 28.654 28.857 29.893 29.919 29.922 29.471 29.228 28.994 28.826 28.661 28.429000000000002 28.244 28.1 27.874000000000002 27.715 27.5 27.325 27.141000000000002 26.925 26.75 5.297 5.338 5.171 4.613 5.021 4.558 4.529 4.509 4.511 4.516 4.632 4.663 4.682 4.682 4.681 4.682 4.673 4.6690000000000005 4.648 5.9830000000000005 6.554 6.739 6.4990000000000006 6.461 6.449 6.487 6.896 6.602 6.291 7.351 7.301 7.277 4.548 4.546 4.531 4.535 7.096 7.256 7.607 7.682 7.42 7.556 7.5520000000000005 6.683 7.452 7.390000000000001 7.297 7.635 7.11 8.81 8.772 8.86 9.322000000000001 9.302 8.491 8.668000000000001 8.751 8.633000000000001 9.081 8.803 7.454 5.774 4.658 4.644 4.634 4.641 4.643 4.652 4.6610000000000005 4.67 4.662 4.647 4.651 4.671 4.641 4.656 4.625 4.644 4.624 4.634 4.624 4.612 4.605 4.594 4.61 4.623 4.625 4.635 4.638 4.63 4.63 4.62 4.64 5.667 5.729 5.543 5.7490000000000006 5.734 4.738 4.873 4.93 6.04 5.089 4.843 4.687 4.651 4.655 4.657 4.659 4.66 4.655 4.663 6.445 4.633 4.633 6.142 6.123 5.941 5.851 4.658 4.64 4.655 4.643 4.659 4.643 4.651 4.647 4.647 4.643 4.625 4.63 4.627 4.606 4.6080000000000005 4.599 4.583 4.591 4.612 4.6290000000000004 4.636 4.756 4.774 5.238 4.715 4.743 4.74 6.6450000000000005 7.312 9.525 8.395 7.498 7.218 6.942 7.016 6.651 7.075 6.8420000000000005 6.835 4.473 4.4670000000000005 4.4590000000000005 4.46 4.45 4.462 4.448 4.423 4.433 4.453 4.445 4.458 4.4590000000000005 5.282 5.555 5.785 5.855 5.8870000000000005 5.884 5.779 5.6080000000000005
7.871 7.918 7.863 7.854 7.957 8.283 8.433 8.459 8.401 8.337 7.978 8.576 9.624 9.377 8.909 13.578 13.638 13.728 19.941 20.665 23.405 23.413 23.902 28.57 28.807000000000002 28.810000000000002 29.279 28.746000000000002 29.632 29.832 29.606 29.19 29.193 29.187 29.576 29.439 29.635 29.707 29.773 28.319 28.499000000000002 27.539 27.968 27.954 27.487000000000002 27.428 27.204 27.052 26.926000000000002 25.71 28.908 28.933 29.498 29.408 29.321 29.313 27.844 28.499000000000002 28.462 28.38 28.293 27.658 24.696 24.478 27.5 28.456 29.824 29.82 29.924 29.752 29.164 28.88 28.900000000000002 28.994 28.921 28.288 28.53 29.153000000000002 29.784 29.650000000000002 29.63 28.881 28.810000000000002 28.832 28.724 28.766000000000002 29.293 28.963 29.330000000000002 29.623 29.636 29.667 29.63 29.344 29.348 29.492 29.538 29.01 28.897000000000002 28.386 28.586000000000002 28.682000000000002 28.532 27.988 27.567 27.374000000000002 26.493000000000002 26.504 26.228 24.143 18.205000000000002 17.554000000000002 17.107 15.055 15.235 14.921000000000001 14.959 15.064 14.98 14.806000000000001 3.392 3.394 3.44 3.4410000000000003 3.46 3.474 3.477 3.471 3.478 3.484 3.467 3.467 3.463 3.418 3.517 3.5220000000000002 3.5260000000000002 3.528 3.5300000000000002 3.524 4.929647289783247 4.930647289783245 4.8790000000000004 24.909 23.829 23.852 26.727 26.944 27.102 27.283 27.496000000000002 27.692 27.825 28.060000000000002 28.234 28.439 28.616 28.816 29.888 29.929000000000002 29.905 29.477 29.287 29.086000000000002 28.844 28.692 28.493000000000002 28.281000000000002 28.107 27.95 27.734 27.547 27.364 27.164 27 26.786 5.2860000000000005 5.281 5.19 5.307 5.565 4.918 4.7540000000000004 4.509 4.511 4.5120000000000005 4.638 4.632 4.679 4.6850000000000005 4.6850000000000005 4.682 4.679 4.658 4.663 5.234 5.896 7.0840000000000005 6.78 6.835 6.221 5.961 6.47 6.618 5.9350000000000005 7.106 6.587 7.405 7.023000000000001 4.535 4.529 4.517 7.016 7.234 7.203 7.57 7.829 7.781000000000001 7.3420000000000005 7.261 7.457 7.626 7.605 7.073 7.097 8.356 8.693 9.39362913113662 9.187 8.719 8.557 8.222 9.092 8.454 7.889 7.606 7.447 6.18 4.649 4.64 4.641 4.641 4.6370000000000005 4.657 4.655 4.655 4.663 4.643 4.649 4.627 4.615 4.616 4.63 4.623 4.6290000000000004 4.623 4.628 4.607 4.622 4.6080000000000005 4.603 4.614 4.64 4.625 4.639 5.599 5.7410000000000005 5.785 5.743 5.752 5.7540000000000004 5.6290000000000004 4.639 5.898 5.408 4.8180000000000005 4.8340000000000005 6.061 6.074 5.4590000000000005 4.861 4.657 4.674 4.664 4.682 4.674 4.657 5.049 6.551 6.594 4.638 4.6290000000000004 5.892 5.972 4.697 4.672 4.66 4.654 4.631 4.664 4.6450000000000005 4.649 4.644 4.641 4.6450000000000005 4.624 4.628 4.621 4.603 4.6080000000000005 4.594 4.581 4.579 4.5920000000000005 4.6080000000000005 4.613 4.648 4.7090000000000005 5.133 4.714 4.721 4.7170000000000005 4.747 7.323 4.746 6.7780000000000005 6.66 6.922 7.043 8.367 6.94 7.896 7.5440000000000005 6.8580000000000005 7.091 4.471 4.469 4.455 4.4590000000000005 4.448 4.449 4.428 4.429 4.433 4.46 4.455 4.483 5.291 5.249 5.7700000000000005 5.8500000000000005 5.86 5.915 5.925 5.755
14.857000000000001 7.8870000000000005 8.014 7.993 7.782 7.901 7.442 7.347 7.132000000000001 4.599 4.675 4.627 9.641 7.99 8.813 13.343 13.52 13.018 21.714000000000002 23.526 23.45 23.832 27.742 28.539 28.749000000000002 29.095 29.177 29.086000000000002 29.7 30.084 29.953 29.703 30.366 29.786 29.705000000000002 30.27 29.525000000000002 29.617 29.871000000000002 29.974 28.299 27.852 27.544 27.471 27.597 27.26 27.208000000000002 27.17 27.041 25.678 28.675 28.818 29.299 29.326 28.064 28.226 27.561 28.467000000000002 28.459 28.051000000000002 27.361 27.324 24.914 27.684 27.846 29.941647289783248 29.929000000000002 29.986 30.023 29.697 29.309 30.029 29.105 28.794 28.848 29.306 29.151 29.26 30.005 29.933 29.607 29.794 29.846 28.803 28.849 28.496000000000002 28.065 29.236 28.937 29.206 29.339000000000002 29.546 29.34 29.015 28.754 29.471 29.454 29.150000000000002 29.002 28.376 28.400000000000002 28.408 28.362000000000002 28.11 26.598 26.875 26.849 26.73 24.428 24.299 24.38 17.218 15.227 15.125 14.73 14.698 14.576 14.941 14.944 14.662 3.3850000000000002 3.403 3.424 3.438 3.472 3.471 3.462 3.487 3.472 3.485 3.479 4.025647289783244 4.078647289783248 4.054647289783247 3.499 3.516 3.539 3.516 3.5180000000000002 3.539 4.965647289783249 4.966647289783246 5.027647289783246 24.900000000000002 23.837 23.843 26.677 26.878 27.041 27.228 27.399 27.585 27.838 28.004 28.175 28.365000000000002 28.543 28.772000000000002 28.998 29.92 29.904 29.486 29.286 29.094 28.926000000000002 28.708000000000002 28.53 28.362000000000002 28.164 27.962 27.782 27.628 27.38 27.23 27.04 26.868000000000002 5.237 5.2780000000000005 5.205 5.098 4.886 5.321 4.521 4.5120000000000005 4.508 4.514 4.625 4.65 4.67 4.684 4.678 4.683 4.671 4.6690000000000005 4.6530000000000005 5.515 5.782 5.82 5.6770000000000005 5.3180000000000005 5.347 5.328 4.898 5.821 5.768 5.724 7.1240000000000006 7.474 4.889 4.529 4.535 4.531 4.566 7.0360000000000005 7.239 7.43 7.719 7.721 8.026 7.2090000000000005 7.1770000000000005 7.466 7.768 8.32 8.253 8.535 9.124 8.746 8.921 8.896 8.523 8.496 8.515 7.791 7.458 6.114 6.317 6.309 5.54 4.6370000000000005 4.644 4.644 4.641 4.643 4.627 4.625 4.635 4.627 4.621 4.612 4.603 4.609 4.63 4.594 4.622 4.628 4.624 4.616 4.617 4.614 4.597 5.602 5.7330000000000005 5.748 5.752 5.748 4.864 5.074 5.042 4.675 5.775 4.82 4.643 4.647 4.658 4.656 4.847 6.168 6.279 5.4430000000000005 5.494 4.648 4.694 4.681 4.695 4.716 4.662 5.026 6.621 6.648000000000001 -9999 -9999 24.917 -9999 24.959 24.937 4.657 4.638 4.63 4.641 4.657 4.6370000000000005 4.628 4.6450000000000005 4.635 4.632 4.618 4.597 4.6000000000000005 4.59 4.597 4.583 4.587 4.598 4.619 4.606 4.621 4.638 5.191 4.705 4.713 4.736 4.726 4.723 4.727 4.743 6.527 6.831 7.098 8.316 8.444 9.393 9.413 7.034 7.5040000000000004 7.26 6.883 6.87 4.4510000000000005 4.4590000000000005 4.456 4.434 4.426 4.441 4.453 4.455 4.464 4.995 5.156 5.2410000000000005 5.643 5.8950000000000005 5.9590000000000005 5.932 5.814
16.738 11.366 8.065 7.988 7.767 7.863 7.8020000000000005 7.705848322221691 4.746 4.704 4.694 4.604 4.566 6.736 4.577 4.442 4.564 14.725 21.752 22.983 23.627 23.69 28.102 28.646 28.645 29.144000000000002 29.87 30.005 29.900000000000002 30.008 30.312 30.44 30.329 30.342000000000002 30.809 30.845000000000002 30.668 30.101 30.011 30.012 29.101 27.803 27.518 27.283 27.369 27.365000000000002 27.114 27.244 26.721 26.277 28.956 28.802 25.952 28.426000000000002 27.203 26.828 26.193 27.53 27.878 27.902 25.917 26.227 26.053 27.824 30.302 30.134 29.666 29.763 29.891000000000002 29.703 29.684 30.328 29.973 29.713 29.474 29.472 29.245 30.364 30.174 30.368000000000002 30.025000000000002 29.904 29.678 29.702 28.077 28.38 29.179000000000002 30.088 29.812 28.863 29.077 29.080000000000002 29.426000000000002 28.945 29.244 29.637 29.454 29.065 29.09 28.458000000000002 28.359 27.913 27.907 26.809 27.024 26.72 26.568 26.796 26.452 24.422 24.368000000000002 16.91 16.373 15.199 14.864 14.508000000000001 12.828 3.481 14.785 3.4530000000000003 3.448 3.407 3.4330000000000003 3.4450000000000003 3.438 3.45 3.46 3.465 3.468 3.47 3.8856472897832433 4.193647289783243 4.182647289783247 4.17864728978325 3.434 3.5020000000000002 3.527 3.523 3.512 3.515 4.720647289783244 5.057647289783247 5.019647289783244 24.883 24.888 23.854 26.604 26.848 27.002 27.196 27.458000000000002 27.557000000000002 27.757 27.977 28.138 28.319 28.502 28.72 28.908 29.111 29.282 29.467000000000002 29.353 29.165 28.953 28.799 28.577 28.415 28.231 28.02 27.809 27.635 27.461000000000002 27.273 27.096 26.929000000000002 26.728 5.3420000000000005 5.3500000000000005 5.244 4.518 4.694 4.852 4.876 4.498 4.505 4.503 4.626 4.672 4.6770000000000005 4.691 4.697 4.689 4.662 4.668 5.4910000000000005 5.715 5.628 5.565 5.291 4.736 4.893 4.745 5.348 5.838 5.751 5.442 4.781 4.681 4.534 4.523 4.507 6.734 6.795 6.893 7.501 7.553 7.494 7.591 7.186 7.784 7.838 8.116 8.232629131136619 8.633000000000001 8.617 8.74 8.429 8.967 8.114 8.218 8.628 8.609 8.734 4.634 4.638 6.3020000000000005 6.133 4.672 4.6370000000000005 4.6530000000000005 4.63 4.6290000000000004 4.641 4.628 4.621 4.622 4.641 4.626 4.635 4.633 4.619 4.634 4.634 4.611 4.633 4.628 4.633 4.652 4.633 5.737 5.736 4.995 4.705 5.018 4.644 4.636 4.654 4.66 4.659 4.6530000000000005 4.649 4.664 4.6610000000000005 4.649 4.667 4.703 4.652 6.393 4.781 -9999 -9999 -9999 24.479 24.511 24.514 25.295 -9999 -9999 24.904 24.906 24.944 24.977 24.931 24.869 24.942 24.867 4.64 4.624 4.6290000000000004 4.659 4.643 4.636 4.649 4.638 4.622 4.611 4.603 4.586 4.588 4.585 4.5920000000000005 4.6080000000000005 4.594 4.615 4.609 4.619 4.619 5.2010000000000005 4.752 4.702 4.715 4.713 4.719 4.724 4.7330000000000005 6.73 7.264 7.106 9.192 9.153 9.061 9.614 9.878 7.852 8.083 7.816 7.856 4.455 4.472 4.452 4.449 4.446 4.434 4.449 4.464 5.0120000000000005 5.547 5.6240000000000006 5.509 5.856 5.924 5.9430000000000005 5.916 5.84
17.545 17.446 7.937 7.447 7.673 4.679 7.375 7.405 4.9030000000000005 4.8950000000000005 4.878 4.51 4.806 4.83 4.65 14.611 16.118000000000002 16.173000000000002 21.509 23.023 23.326 25.362000000000002 25.366 27.927 29.569 29.583000000000002 30.060000000000002 30.026 30.14 30.476 30.1 30.208000000000002 30.255 30.202 30.435000000000002 30.836000000000002 30.703 28.875 28.864 28.819 29.060000000000002 28.727 27.292 26.73 27.22 26.949 27.176000000000002 26.934 26.244 26.561 26.298000000000002 28.677 26.168 26.257 26.231 26.489 26.247 26.490000000000002 26.622 26.72 26.651 26.95 28.005 30.154 30.214000000000002 30.224 30.165 29.899 29.923000000000002 29.808 29.69 30.548000000000002 30.172 30.015 29.986 30.054000000000002 30.477 30.482 30.505 30.329 30.102 29.889 29.819 29.806 29.319 28.964000000000002 29.277 29.949 29.64 29.187 28.832 29.119 29.096 28.97 29.193 29.568 29.393 29.179000000000002 28.889 28.338 28.060000000000002 27.303 27.103 27.149 26.93 26.773 26.891000000000002 26.829 25.925 24.392 24.294 17.003 16.998 16.629 11.785 11.586 12.744 3.484 3.4530000000000003 3.435 3.451 3.422 3.419 3.4330000000000003 3.448 3.442 3.462 3.485 3.471 3.485 3.9626472897832485 4.2126472897832485 4.258647289783248 4.252647289783248 4.213647289783246 3.5140000000000002 3.513 3.519 3.524 3.527 4.860647289783245 4.843 4.896 24.859 24.892 23.844 26.654 26.813 26.973 27.163 27.307000000000002 27.575 27.705000000000002 27.863 28.138 28.297 28.484 28.691 28.868000000000002 29.009 29.213 29.490000000000002 29.458000000000002 29.179000000000002 28.997 28.811 28.625 28.472 28.238 28.074 27.881 27.682000000000002 27.504 27.293 27.131 26.925 26.751 5.353 5.384 5.2780000000000005 4.9270000000000005 4.93 4.899 4.877 4.559 4.488 4.51 4.649 4.665 4.695 4.699 4.686 4.705 4.68 4.672 4.689 5.2170000000000005 5.314 5.21 5.202 5.518 5.2620000000000005 5.322 5.263 5.577 5.511 6.267 4.747 4.692 4.532 4.526 4.519 4.517 6.558 7.031000000000001 7.102 7.892 7.623 7.1850000000000005 7.321 6.962 7.806 8.175 8.938 8.56 8.005 8.086 8.667 8.006 7.184 7.319 7.2540000000000004 7.699 4.647 4.658 6.894 4.633 4.633 4.627 4.633 4.621 4.616 4.625 4.622 4.641 4.634 4.642 4.638 4.649 4.649 4.633 4.633 4.631 4.6290000000000004 4.635 4.636 4.633 4.664 4.659 5.731 5.732 5.112 5.079 4.659 4.633 4.651 4.647 4.649 4.6530000000000005 4.6530000000000005 4.663 4.667 4.675 4.662 4.6610000000000005 -9999 -9999 -9999 25.299 24.525000000000002 24.556 24.525000000000002 24.527 24.521 24.466 25.248 25.272000000000002 24.916 24.926000000000002 24.853 24.895 24.755 24.673000000000002 24.668 24.781 24.912 24.911 4.642 4.617 4.617 4.658 4.644 4.642 4.63 4.635 4.621 4.596 4.59 4.5840000000000005 4.581 4.5680000000000005 4.583 4.596 4.589 4.603 4.603 4.606 4.611 5.239 5.015 4.694 4.686 4.699 4.711 4.699 4.719 6.6690000000000005 6.889 9.068 9.084 8.895 9.408 9.124 8.869 7.962 8.041 7.836 7.82 4.452 4.453 4.45 4.45 4.43 4.429 4.4670000000000005 4.466 4.515 5.6080000000000005 5.707 5.769 5.877 5.921 5.892 5.832 5.394
17.606 17.383 11.882 8.116 8.258000000000001 8.295 6.389 4.765 4.894 5.08 4.969 4.782 4.89 4.7 4.626 15.001 15.998000000000001 16.148 21.533 22.958000000000002 25.426000000000002 25.791 25.635 25.041 29.538 29.552 30.011 29.983 30.383 30.195 30.468 30.312 30.296 30.178 30.527 30.727 30.644000000000002 29.96 28.88 28.921 29.537 29.172 27.331 26.906 26.897000000000002 27.236 26.819 26.686 26.625 25.902 26.05 26.295 26.489 26.219 26.296 26.368000000000002 26.268 26.442 26.706 26.731 27.218 28.083000000000002 28.29 30.105 30.351 30.351 30.353 30.26 29.84 29.905 30.707 30.736 30.591 31.208000000000002 31.189 31.079 30.859 30.488 30.724 30.618000000000002 30.038 30.198 30.321 29.747 29.169 28.446 29.253 29.277 29.373 28.659 28.462 28.64 28.836000000000002 28.905 28.922 29.408 29.307000000000002 29.343 28.732 28.294 27.956 27.04 27.185000000000002 27.019000000000002 26.897000000000002 27.055 26.946 26.876 25.755 24.012 23.336000000000002 16.988 16.775 16.923000000000002 12.224 11.467 3.521 3.469 3.4370000000000003 3.432 3.42 3.416 3.416 3.431 3.439 3.455 3.4370000000000003 3.454 3.473 3.475 3.481 4.369647289783245 4.3916472897832435 3.451 4.491647289783245 3.483 3.523 3.513 3.495 3.524 3.523 4.9626472897832485 5.0336472897832465 4.980647289783249 24.92 23.847 23.944 26.785 26.896 27.104 27.339000000000002 27.431 27.667 27.873 27.998 28.242 28.461000000000002 28.598 28.82 28.994 29.156000000000002 29.465 29.459 29.254 29.035 28.874000000000002 28.69 28.467000000000002 28.307000000000002 28.106 27.938 27.759 27.508 27.373 27.194 26.993000000000002 26.791 5.348 5.348 5.279 4.876 4.894 4.909 4.941 4.718 4.502 4.501 4.627 4.6530000000000005 4.689 4.713 4.697 4.692 4.6850000000000005 4.6850000000000005 4.691 4.713 4.886 5.095 5.123 5.682 5.812 5.4750000000000005 5.587 5.603 5.495 6.914 7.093 6.232 4.523 4.5200000000000005 4.518 4.517 4.521 6.631 6.724 6.805 7.6160000000000005 7.133 6.961 7.674 9.009 8.533629131136621 8.773 8.067 7.601 8.079 4.638 4.644 5.378 5.397 5.388 5.432 5.33 4.676 4.666 4.625 4.632 4.63 4.632 4.631 4.635 4.621 4.6530000000000005 4.6530000000000005 4.65 4.647 4.652 4.658 4.6370000000000005 4.621 4.627 4.638 4.6370000000000005 4.631 4.638 4.638 4.667 5.744 5.69 4.687 4.642 4.6370000000000005 4.647 4.6530000000000005 4.652 4.65 4.654 4.6530000000000005 4.663 4.659 4.6930000000000005 -9999 -9999 -9999 24.522000000000002 24.542 24.563 25.259 25.248 24.47 24.457 24.433 24.412 24.401 24.382 25.284 24.830000000000002 24.773 24.748 24.727 24.695 24.669 24.643 24.749 24.877 24.933 4.659 4.638 4.633 4.65 4.6450000000000005 4.621 4.635 4.632 4.628 4.61 4.6000000000000005 4.595 4.589 4.585 4.593 4.609 4.606 4.602 4.611 4.604 4.605 5.202 4.955 4.68 4.694 4.674 4.688 7.251 7.257000000000001 7.222 6.561 6.665 6.9350000000000005 8.989 8.342 7.913 7.752 7.928 7.867 8.158 7.753 4.449 4.46 4.448 4.445 4.429 4.424 4.462 4.463 5.455 5.695 5.72 5.809 5.913 5.8660000000000005 5.836 4.796 5.336
17.289 17.167 7.675 7.952 8.06 7.735 7.689 7.745 4.846 5.059 5.085 5.08 5.12 4.9510000000000005 4.463 15.001 15.183 15.733 21.238 21.669 25.757 25.716 25.323 28.595 28.6 28.721 30.154 30.169 30.471 30.428 30.266000000000002 30.387 30.645 30.427 30.616 30.268 30.028000000000002 30.038 30.107 29.684 29.878 29.816 27.164 27.153000000000002 27.035 26.988 26.54 26.333000000000002 26.588 25.916 26.384 26.256 26.383 26.391000000000002 26.432000000000002 26.731 27.061 26.565 26.68 26.635 26.832 27.065 28.269000000000002 29.823 30.077 30.371000000000002 30.206 30.27 30.143 30.060000000000002 30.814 30.733 31.1 31.189 31.107 31.041 30.885 30.482 30.038 30.715 30.569 30.685000000000002 30.729 30.363 30.172 28.788 26.63 29.173000000000002 28.787 28.150000000000002 27.803 28.650000000000002 29.071 28.813 28.711000000000002 29.324 29.464000000000002 29.408 28.679000000000002 28.103 26.951 27.107 26.968 26.925 26.837 27.208000000000002 26.733 24.389 24.229 24.109 16.997 16.929000000000002 16.817 16.885 12.359 11.035 3.48 3.478 3.465 3.43 3.427 3.415 3.398 3.422 3.43 3.428 3.454 3.4450000000000003 3.4490000000000003 3.47 3.467 4.448647289783246 4.706647289783248 4.68464728978325 4.711647289783244 4.173647289783247 3.493 3.498 3.507 3.504 3.5220000000000002 4.9356472897832475 4.968647289783249 4.9796472897832444 24.93 23.836000000000002 23.848 26.66 26.878 27.058 27.308 27.456 27.639 27.830000000000002 28.045 28.165 28.367 28.593 28.713 28.944 29.157 29.298000000000002 29.459 29.297 29.121000000000002 28.947 28.734 28.513 28.339000000000002 28.199 27.937 27.766000000000002 27.613 27.41 27.239 27.047 26.842000000000002 26.718 5.323 5.402 5.324 4.928 4.9 4.966 4.891 4.489 4.511 4.526 4.642 4.681 4.6850000000000005 4.695 4.708 4.687 4.698 4.699 4.713 4.729 4.785 5.407 5.681 5.712 5.625 5.6850000000000005 5.7170000000000005 5.851 6.933 6.731 6.345 4.6080000000000005 4.9510000000000005 4.508 4.5040000000000004 4.523 6.567 6.651 7.296 7.266 7.105 7.086 7.152 8.972 8.863 8.736 8.768 7.817 7.6160000000000005 4.642 5.155 5.404 5.36 5.392 5.357 5.378 4.636 4.619 5.8 5.898 4.639 4.6530000000000005 4.659 4.6450000000000005 4.656 4.649 4.654 4.6450000000000005 4.633 4.652 4.648 4.628 4.621 4.623 4.612 4.649 4.639 4.65 4.662 4.658 5.711 5.3950000000000005 4.668 4.664 4.659 4.651 4.66 4.652 4.655 4.659 4.662 4.668 -9999 25.321 24.568 24.548000000000002 24.504 24.490000000000002 24.461000000000002 24.433 25.259 25.268 24.386 24.403000000000002 24.38 24.359 24.422 24.412 25.276 25.207 24.781 24.743000000000002 24.731 24.709 24.671 24.672 24.703 24.833000000000002 24.935000000000002 22.406 4.635 4.641 4.639 4.639 4.643 4.622 4.647 4.63 4.603 4.595 4.599 4.6000000000000005 4.606 4.581 4.604 4.598 4.6000000000000005 4.601 4.613 4.627 4.619 5.211 6.798 7.275 7.267 7.271 7.259 4.752 4.696 6.851 7.151 7.143 7.25 7.759 7.6930000000000005 7.968 7.904 7.984 8.189 8.155 7.354 6.969 4.452 4.468 4.452 4.4350000000000005 4.456 5.42 5.565 5.699 5.752 5.773 5.929 5.829 5.458 5.538 5.513
16.203 7.257000000000001 7.5760000000000005 8.518 8.082 8.014 7.591 8.04184832222169 4.973 4.942 4.978 5.09 5.057 5.043 5.079 15.042 15.509 15.123000000000001 21.619 23.953 25.567 25.555 26.708000000000002 28.526 28.664 28.682000000000002 29.777 30.067 30.099 30.139 30.747 30.461000000000002 30.625 30.432000000000002 30.213 30.021 30.043 29.55 30.078 30.061 29.649 29.591 29.206 27.169 26.651 27.042 26.504 26.376 26.48 26.202 26.347 26.785 26.692 26.712 26.347 26.821 27.061 26.256 26.655 26.465 27.497 27.729 27.716 29.846 30.056 29.938000000000002 30.167 30.103 30.104 30.378 30.439 30.583000000000002 31.738 31.445 31.269000000000002 31.486 31.490000000000002 30.622 30.694 30.637 30.536 30.709 30.331 30.285 30.094 28.893 28.779 28.245 28.059 28.019000000000002 27.941 28.484 28.593 28.642 28.421 28.169 28.564 28.438 28.077 26.891000000000002 27.058 27.304000000000002 26.954 26.758 26.455000000000002 26.398 26.465 24.388 23.898 23.01 16.969 16.907 16.622 16.242 12.302 3.5100000000000002 3.5 3.481 3.458 3.4370000000000003 3.431 3.4 3.403 3.415 3.427 3.434 3.43 3.452 3.46 3.446 3.465 4.218647289783249 4.767647289783248 4.723647289783244 4.706647289783248 4.200647289783248 3.493 3.483 3.505 3.508 3.505 4.943647289783243 4.978647289783247 4.942647289783245 24.897000000000002 24.900000000000002 23.84 26.628 26.826 27.047 27.21 27.401 27.615000000000002 27.764 27.913 28.157 28.343 28.545 28.722 28.878 29.073 29.28 29.451 29.369 29.155 28.943 28.779 28.585 28.388 28.217000000000002 28.032 27.832 27.646 27.469 27.288 27.095 27.033 26.911 6.08 5.961 5.522 5.018 4.8180000000000005 4.91 4.94 4.511 4.507 4.513 4.639 4.673 4.699 4.702 4.7010000000000005 4.707 4.696 4.711 4.726 4.736 4.7330000000000005 4.881 5.586 5.538 5.604 5.687 5.784 5.687 6.486 6.425 6.444 5.34 5.0680000000000005 4.503 4.494 4.497 4.502 6.9830000000000005 7.005 7.664000000000001 7.622 7.527 7.902 7.667 8.738 8.71 7.615 7.837 7.885 4.632 4.72 5.388 5.344 5.429 5.4 4.65 4.632 4.632 6.026 6.269 6.022 4.8500000000000005 4.662 4.639 4.648 4.658 4.64 4.649 4.6450000000000005 4.646 4.626 4.628 4.6290000000000004 4.6370000000000005 4.638 4.638 4.652 4.656 4.665 5.723 5.117 4.682 4.659 4.658 4.648 4.665 4.66 4.672 4.7010000000000005 4.667 4.673 4.648 -9999 25.29 24.486 24.46 24.437 24.414 24.39 24.377 24.374 25.192 24.41 24.418 24.421 24.422 24.419 24.419 25.272000000000002 25.276 24.785 24.751 24.729 24.706 24.67 24.647000000000002 24.707 24.8 24.908 24.96 4.636 4.643 4.657 4.655 4.625 4.632 4.632 4.618 4.613 4.612 4.612 4.598 4.577 4.588 4.597 4.594 4.607 4.614 4.613 4.635 4.641 5.171 7.149 6.8870000000000005 4.69 4.695 4.683 4.712 4.713 6.885 7.093 7.488 7.535 7.245 7.434 7.62 7.78 8.079 7.676 7.455 7.355 6.817 4.446 4.446 4.444 4.4270000000000005 4.454 5.513 5.651 5.71 5.769 5.8100000000000005 5.868 5.934 5.735 5.506 5.623
8.758000000000001 8.829 8.682 8.414 8.344 7.431 7.363 7.2940000000000005 5.042 5.066 5.041 5.405 5.6240000000000006 5.485 5.446 5.415 5.168 25.763 26.72 26.72 26.639 26.992 27.082 28.19 28.536 28.69 28.798000000000002 28.944 29.716 30.247 30.688000000000002 30.618000000000002 30.299 30.131 30.364 30.199 30.175 30.093 30.021 29.532 29.513 29.114 28.619 27.27 25.317 26.239 26.235 26.11 26.297 25.901 26.176000000000002 27.052 27.158 26.761 26.698 26.896 26.917 26.819 26.104 27.097 27.219 27.479 27.684 28.748 30.023 29.805 30.012 29.991 30.612000000000002 30.516000000000002 30.595 30.711000000000002 31.468 31.575 31.61 31.398 31.638 31.387 31.473 31.150000000000002 30.919 30.468 30.443 30.197 29.813000000000002 28.92 28.665 28.429000000000002 27.34 27.118000000000002 27.59 27.907 28.366 28.602 27.796 27.438 28.502 26.89 26.864 26.794 26.702 26.928 26.785 26.715 26.432000000000002 26.192 24.688 24.36 23.663 23.177 17.072 16.988 16.879 16.129 13.437000000000001 13.425 3.473 3.467 3.462 3.438 3.4250000000000003 3.411 3.399 3.4050000000000002 3.43 3.428 3.4330000000000003 3.428 3.45 3.458 3.45 3.457 4.762647289783246 4.775647289783244 4.7226472897832465 4.686647289783245 3.48 3.491 3.507 3.516 3.536 4.621 5.124647289783248 4.899 24.892 24.917 23.85 23.856 26.819 26.991 27.177 27.321 27.516000000000002 27.740000000000002 27.912 28.117 28.315 28.431 28.653000000000002 28.853 29.024 29.195 29.465 29.453 29.196 29.002 28.827 28.625 28.451 28.212 28.101 27.919 27.825 27.665 27.531 27.313 27.107 26.88 6.515000000000001 6.158 5.223 5.103 4.783 5.014 5.005 4.784 4.522 4.518 4.644 4.652 4.692 4.712 4.718 4.706 4.722 4.715 4.74 4.738 4.748 4.776 5.21 5.442 5.748 5.783 5.74 5.495 6.948 6.993 5.455 5.509 4.51 4.497 4.497 4.494 4.491 7.024 7.364 7.495 7.501 7.299 7.03 7.787 7.795 8.914 8.811 8.764 7.489 4.642 4.621 4.994 5.077 4.666 4.7010000000000005 4.636 4.623 4.611 5.655 6.392 6.46 5.9190000000000005 4.654 4.635 4.6370000000000005 4.643 4.649 4.634 4.622 4.64 4.6290000000000004 4.63 4.6370000000000005 4.6370000000000005 4.639 4.659 4.65 4.655 5.734 4.772 4.674 4.648 4.6530000000000005 4.666 4.662 4.662 4.6530000000000005 -9999 -9999 -9999 -9999 -9999 25.003 25.026 25.296 24.39 24.36 24.375 24.43 24.435000000000002 24.445 25.27 24.414 24.428 24.433 24.411 24.431 24.427 25.281 25.288 24.796 24.766000000000002 24.732 24.706 24.69 24.654 24.684 24.784 24.892 24.948 4.643 4.654 4.659 4.666 4.622 4.62 4.62 4.628 4.621 4.616 4.595 4.6000000000000005 4.582 4.595 4.5920000000000005 4.602 4.601 4.625 4.635 4.62 4.6290000000000004 5.202 4.828 5.806 4.694 4.692 4.714 4.719 4.708 6.4110000000000005 6.615 7.301 7.273000000000001 7.4350000000000005 7.424 7.595 8.136000000000001 8.315 8.308 7.436 7.61 7.28 4.453 4.4430000000000005 4.4350000000000005 4.442 4.444 5.561 5.632 5.713 5.74 5.763 5.878 5.873 5.763 5.505 5.849
8.25 8.538 8.38 7.896 7.962 7.986 7.313 7.258 5.074 5.281 5.503 5.861 5.7860000000000005 5.682 5.595 25.16 25.513 25.844 26.168 26.659 26.639 27.272000000000002 27.145 27.892 27.961000000000002 28.359 28.881 28.898 29.577 30.108 30.502 30.284 30.032 30.155 30.195 30.242 29.805 30.102 30.159 29.787 29.239 29.409 29.32 27.483 27.179000000000002 26.324 26.099 26.194 26.285 25.777 26.689 27.029 27.026 26.909 26.656 26.51 26.868000000000002 26.837 25.975 26.93 27.313 27.215 27.114 29.162 30.049 29.922 30.197 30.619 30.971 30.603 30.738 30.993000000000002 31.472 31.408 31.456 31.174 31.288 31.247 31.245 30.662 30.621000000000002 30.675 30.449 30.026 28.418 28.748 28.522000000000002 28.285 27.352 27.161 27.256 27.84 27.992 27.131 27.652 27.707 27.578 27.154 27.179000000000002 27.787 27.447 28.275000000000002 26.598 26.86 26.565 25.382 24.707 23.689 23.692 23.569 18.727 18.058 15.196 13.711 13.567 13.66 13.47 13.357000000000001 3.45 3.435 3.419 3.42 3.394 3.407 3.415 3.4210000000000003 3.426 3.444 3.44 3.458 3.468 3.463 4.656647289783244 4.792647289783247 4.730647289783249 4.752647289783248 3.471 3.486 3.488 3.498 3.5100000000000002 3.521 4.862647289783247 4.990647289783247 4.913 24.891000000000002 23.845 23.852 26.740000000000002 26.939 27.12 27.293 27.487000000000002 27.683 27.878 28.052 28.233 28.459 28.578 28.791 29.012 29.162 29.444 29.436 29.240000000000002 29.075 28.865000000000002 28.724 28.679000000000002 28.451 28.294 28.096 27.944 27.626 27.458000000000002 6.307 6.796 6.445 6.553 6.3740000000000006 5.95 5.213 4.813 4.95 5.015 4.843 4.529 4.527 4.647 4.689 4.707 4.714 4.7170000000000005 4.721 4.722 4.741 4.729 4.738 4.744 4.782 5.338 5.513 5.8340000000000005 5.815 5.5840000000000005 5.612 7.005 7.055 7.019 4.8950000000000005 4.493 4.496 4.487 4.5 4.49 4.487 7.154 7.801 7.6000000000000005 7.432 7.21 6.953 8.256 8.762 8.659629131136619 8.481 9.124 8.663 4.63 4.625 4.63 4.635 4.621 4.624 4.626 4.621 5.589 6.204 6.3 6.214 4.749 4.6370000000000005 4.634 4.6290000000000004 4.612 4.632 4.632 4.639 4.657 4.649 4.642 4.65 4.648 4.654 4.66 4.655 5.785 4.644 4.632 4.6610000000000005 4.654 -9999 -9999 -9999 -9999 25.026 24.963 24.918 24.978 24.935000000000002 24.847 24.825 25.275000000000002 24.423000000000002 24.449 24.433 24.442 24.449 24.43 25.253 25.207 24.436 24.429000000000002 24.431 24.438 24.443 26.804000000000002 26.808 26.792 24.761 24.743000000000002 24.719 24.715 24.658 24.655 24.71 24.874 24.927 4.64 4.659 4.658 4.652 4.6530000000000005 4.63 4.623 4.621 4.625 4.617 4.604 4.61 4.585 4.586 4.578 4.598 4.6000000000000005 4.615 4.614 4.619 4.618 5.224 5.077 4.691 4.699 4.706 4.702 4.711 4.72 5.8740000000000006 6.365 6.66 6.921 7.5600000000000005 7.844 7.795 7.841 8.032 8.055 7.674 7.382000000000001 6.871 4.442 4.432 4.433 4.425 4.454 5.422 5.601 5.708 5.7410000000000005 5.747 5.799 5.782 5.6240000000000006 5.4430000000000005 5.889
8.226 7.901 8.22 8.152000000000001 7.931 8.139 8.103 7.703 7.545848322221687 6.7330000000000005 5.707 5.8180000000000005 5.813 5.6370000000000005 5.662 5.547 25.743000000000002 26.097 26.234 26.141000000000002 26.984 26.912 27.073 27.092000000000002 27.885 28.796 29.14 28.955000000000002 28.903000000000002 28.878 30.298000000000002 30.441 29.163 29.285 29.916 29.318 29.899 29.805 30.165 30.385 28.89 27.971 28.094 27.893 26.037 26.12 26.024 25.68 25.82 25.919 26.193 26.624000000000002 26.854 26.811 26.812 26.53 26.443 26.314 25.841 26.708000000000002 27.284 27.104 26.935000000000002 26.991 30.033 30.025000000000002 29.973 30.257 30.973 30.891000000000002 30.985 31.142 31.5 31.426000000000002 31.37 31.282 31.361 31.060000000000002 30.916 30.573 30.179000000000002 30.48 29.894000000000002 29.1 29.102 28.741 28.505 28.274 27.181 27.279 28.195 28.22 27.003 27.898 27.891000000000002 27.658 27.580000000000002 27.457 28.393 28.572 28.236 28.255 27.598 26.75 26.407 25.475 24.908 23.777 23.665 19.14 18.397000000000002 17.812 15.169 13.759 13.797 13.629 13.489 13.312000000000001 3.447 3.432 3.4170000000000003 3.406 3.4 3.406 3.411 3.426 3.423 3.431 3.447 3.444 3.4530000000000003 3.451 4.352647289783249 4.790647289783244 4.717647289783244 4.687647289783243 3.461 3.471 3.486 3.494 3.497 3.492 4.8 4.905647289783246 4.8950000000000005 24.906 23.834 23.853 26.71 26.833000000000002 27.07 27.231 27.444 27.657 27.775000000000002 28.018 28.184 28.36 28.625 28.757 28.926000000000002 29.18 29.326 29.484 29.401 29.257 29.127 28.89 28.692 28.45 28.289 26.996000000000002 26.812 26.668 26.561 25.139 6.436 6.311 6.529 6.279 6.18 5.547 4.846 4.902 4.998 4.929 4.514 4.527 4.575 4.658 4.72 4.734 4.729 4.735 4.73 4.724 4.727 4.757 4.767 4.776 5.382 5.6080000000000005 5.768 5.742 5.687 4.945 6.995 7.083 4.791 4.765 4.502 4.482 4.487 4.491 4.482 6.287 6.5760000000000005 7.535 7.54 7.345 7.032 8.531 8.419 8.449 8.132 8.334 9.054 8.498 4.634 4.641 4.6290000000000004 4.62 5.023 4.736 4.62 4.622 6.0280000000000005 6.176 6.207 6.055 4.639 4.628 4.603 4.615 4.627 4.62 4.633 4.657 4.65 4.66 4.662 4.627 4.649 4.64 4.658 4.674 5.71 5.24 4.65 4.657 6.147 6.4510000000000005 24.936 25.017 24.98 24.95 24.895 24.84 24.718 24.744 24.768 24.794 25.281 24.448 24.446 24.459 24.439 24.449 24.444 24.436 25.252 24.437 26.785 26.772000000000002 26.799 26.807000000000002 26.755 26.727 26.802 24.785 24.748 24.718 24.695 24.687 24.658 24.71 24.8 24.893 23.928 4.633 4.655 4.6610000000000005 4.647 4.631 4.617 4.62 4.625 4.627 4.612 4.617 4.604 4.58 4.59 4.599 4.615 4.6080000000000005 4.602 4.603 4.622 4.62 5.235 4.71 4.7 4.703 4.727 4.706 4.723 4.7330000000000005 6.2330000000000005 6.803 6.835 7.657 7.853 7.885 7.859 7.9750000000000005 7.932 7.883 7.346 6.696 4.438 4.452 4.437 4.425 4.423 5.222 5.588 5.716 5.76 5.748 5.726 5.728 5.731 5.75 5.773
7.745 8.396 8.389 8.186 8.255 8.079 8.205 8.097 6.674 7.885 7.885 6.1240000000000006 5.791 5.909 5.505 5.714 5.718 26.059 26.514 26.594 27.737000000000002 27.929000000000002 28.189 27.560000000000002 27.559 28.248 29.019000000000002 28.868000000000002 28.802 30.401 30.354 29.386 29.409 29.911 30.191 30.189 29.971 29.784 29.727 29.754 29.028000000000002 28.044 27.819 27.919 27.145 25.476 25.829 25.531 25.724 25.558 25.993000000000002 26.276 26.901 26.872 26.903000000000002 26.46 26.17 25.97 25.514 26.598 27.305 27.247 28.334 28.413 29.823 29.956 29.902 30.142 30.893 30.796 30.547 30.576 31.146 31.348 31.323 31.195 31.372 31.246000000000002 31.085 30.198 29.97 29.692 29.734 29.489 29.349 28.527 28.085 27.657 26.944 26.591 28.118000000000002 28.273 27.962 28.202 27.562 27.383 27.423000000000002 27.555 28.53 28.659 28.395 28.405 27.648 26.688 25.916 25.492 25.065 21.438 22.921 20.902 20.587 17.829 19.638 13.621 13.759 19.914 13.243 4.668 4.698 3.442 3.43 3.426 3.422 3.391 3.4090000000000003 3.408 3.418 3.4250000000000003 3.422 3.447 3.432 3.434 4.161647289783247 4.692647289783245 4.690647289783243 4.657647289783249 3.407 3.481 3.487 3.486 3.505 3.501 4.738 4.851647289783244 4.973647289783244 24.932000000000002 24.881 23.837 26.656 26.859 26.989 27.182000000000002 27.405 27.575 27.767 27.945 28.136 28.336000000000002 28.491 28.722 29.063 29.196 29.413 29.601 29.51 29.3 27.87 27.729 27.568 27.364 27.242 27.082 26.889 26.737000000000002 26.558 26.449 6.255 6.381 6.422 6.479 6.33 5.555 5.16 4.917 4.9830000000000005 4.97 4.538 4.538 4.54 4.687 4.711 4.742 4.746 4.752 4.75 4.7330000000000005 4.753 4.773 4.771 4.787 4.781 5.21 5.523 5.468 5.553 5.234 4.702 4.51 4.5040000000000004 4.5040000000000004 4.491 4.491 4.473 4.474 4.488 6.355 6.982 7.174629131136619 7.279 7.658 8.197000000000001 8.366 8.92 9.061 9.141 8.958 8.492 8.02 4.922 5.0760000000000005 5.547 5.267 5.0920000000000005 4.913 4.621 4.598 5.9750000000000005 6.13 6.21 6.106 4.62 4.618 4.613 4.609 4.633 4.647 4.644 4.648 4.678 4.649 4.6530000000000005 4.647 4.63 4.631 4.658 4.671 5.721 5.073 4.635 4.656 6.42 -9999 24.986 24.922 24.77 24.687 24.653000000000002 24.693 24.709 24.725 24.767 24.785 25.159 24.462 24.448 24.442 24.453 26.814 26.824 26.796 26.784 26.822 26.739 26.715 26.711000000000002 26.725 26.745 26.745 26.873 26.762 24.76 24.735 24.699 24.694 24.646 24.673000000000002 24.802 24.899 24.8 4.647 4.643 4.6770000000000005 4.648 4.621 4.613 4.616 4.623 4.623 4.625 4.617 4.606 4.586 4.599 4.596 4.594 4.5920000000000005 4.59 4.612 4.605 4.617 5.228 4.779 4.71 4.714 4.721 4.732 4.7330000000000005 5.708 6.729 7.16 7.429 7.231 7.666 7.878 7.7490000000000006 7.942 8.104000000000001 7.973 7.773000000000001 6.593 4.431 4.442 4.442 4.428 4.415 4.468 5.523 5.654 5.718 5.687 5.714 5.758 5.748 5.797 5.804
7.4430000000000005 7.232 8.592 8.587 8.324 8.274000000000001 8.890885923244731 8.34 8.267 8.1 7.816885923244733 7.4830000000000005 7.43 7.223 7.062 5.627 25.115000000000002 25.476 26.598 27.077 27.174 28.141000000000002 28.197 27.644000000000002 27.817 28.603 28.663 28.86 29.206 29.719 29.822 29.487000000000002 29.513 30.059 30.016000000000002 29.967000000000002 29.901 29.196 29.519000000000002 29.240000000000002 28.245 28.156000000000002 28.278000000000002 26.96 26.941 26.869 25.43 25.062 24.752 24.72 25.216 26.343 27.03 26.999000000000002 26.233 26.323 26.486 25.984 26.080000000000002 26.204 27.058 27.082 28.415 29.115000000000002 29.144000000000002 29.448 29.698 30.536 30.63 30.602 30.395 30.481 30.906000000000002 31.274 31.353 30.917 30.816 31.274 31.13 30.933 30.650000000000002 29.817 29.717000000000002 29.424 29.207 29.13 27.96 28.032 27.822 26.427 27.584 27.835 27.837 27.783 27.416 27.638 27.644000000000002 27.465 28.616 29.005 28.442 28.421 27.326 25.979 26.060000000000002 26.087 21.427 21.094 21.1 21.06 20.908 20.915 21.057000000000002 21.061 20.058 19.887 4.9590000000000005 4.92 4.893 3.456 3.435 3.418 3.4090000000000003 3.39 3.41 3.416 3.407 3.414 3.422 3.414 3.44 3.434 3.439 3.443 4.049794083277732 3.7527940832777347 3.399 3.464 3.472 3.488 3.477 3.482 4.716 5.169794083277736 4.9527940832777375 24.792 24.89 23.845 24.374 26.813 26.969 27.148 27.345 27.554000000000002 27.696 27.933 28.159 28.348 28.666 28.794 28.991 29.187 29.23 29.354 28.141000000000002 28.071 27.893 27.742 27.591 27.424 27.255 27.094 26.952 26.784 26.562 26.371000000000002 6.1290000000000004 6.457 6.454 6.345 6.404 6.2540000000000004 5.273 4.739 4.938 4.932 4.541 4.542 4.54 4.695 4.726 4.746 4.7540000000000004 4.745 4.751 4.748 4.749 4.776 4.771 4.782 4.803 4.855 5.118 5.453 5.436 4.878 4.517 4.5 4.508 4.538 4.8260000000000005 4.488 4.483 4.482 6.945 6.944 6.888 7.634 7.602 7.315 7.094 8.078 8.467 8.515 7.974 8.628 8.462 7.308 4.931 5.219 5.468 5.367 5.085 4.992 6.097 6.2170000000000005 6.244 6.32 6.244 6.001 4.633 4.612 4.618 4.6370000000000005 4.642 4.657 4.646 4.652 4.648 4.658 4.636 4.632 4.628 4.616 4.658 4.6690000000000005 5.724 4.64 4.642 4.66 6.377 6.394 -9999 24.952 24.810000000000002 24.661 24.653000000000002 24.678 24.71 24.740000000000002 24.737000000000002 24.772000000000002 25.241 26.763 26.779 26.808 26.811 26.79 26.761 26.711000000000002 26.717000000000002 26.728 26.721 26.755 26.740000000000002 26.731 27.538 27.187 27.018 26.811 24.758 24.745 24.726 24.684 24.664 24.663 24.748 24.895 24.917 4.627 4.642 4.649 4.6370000000000005 4.623 4.622 4.616 4.634 4.6290000000000004 4.619 4.615 4.603 4.5840000000000005 4.585 4.591 4.601 4.594 4.5920000000000005 4.61 4.609 4.6080000000000005 5.25 4.795 4.708 4.74 4.756 4.743 6.527 6.855 7.4110000000000005 7.567 7.521 7.654 7.43 7.827 7.8740000000000006 8.043000000000001 8.135 8.05 8.1 7.6530000000000005 7.127 4.436 4.4510000000000005 4.439 4.438 4.43 4.4430000000000005 4.461 5.492 5.535 5.662 5.7170000000000005 5.767 5.8 5.8
7.34 7.236 7.4830000000000005 8.554 8.327 8.068 8.71 8.311 8.467 8.206 7.999885923244733 7.533 8.252 7.480885923244735 6.664885923244732 5.899 5.899 26.221 26.817 27.574 27.403000000000002 27.656 27.936 27.742 28.066 27.915 28.53 28.562 29.123 29.53 29.808 29.761 29.656000000000002 29.414 29.708000000000002 30.046 28.974 29.12 28.463 28.421 28.664 28.706 28.083000000000002 26.948 24.535 24.467 24.335 25.293 25.999 26.333000000000002 24.917 26.432000000000002 26.986 26.861 26.208000000000002 26.515 26.352 25.965 26.011 26.706 27.213 27.192 27.808 28.871000000000002 29.03 29.366 29.989 30.327 30.385 30.405 30.368000000000002 30.801000000000002 31 31.123 31.325 31.187 30.728 31.059 31.217000000000002 31.095000000000002 30.622 29.741 29.475 29.062 29.104 29.025000000000002 28.663 28.027 27.871000000000002 26.637 27.476 27.275000000000002 26.952 27.207 27.772000000000002 27.721 28.048000000000002 28.293 28.549 29.16 28.556 28.221 27.774 27.813 25.896 26 21.698 21.76 21.815 21.79 20.631 21.344 21.465 20.959 19.986 19.921 4.954 4.9350000000000005 4.921 4.445 3.43 3.4290000000000003 3.396 3.3850000000000002 3.402 3.414 3.4250000000000003 3.414 3.422 3.4290000000000003 3.426 3.43 3.4370000000000003 3.422 3.636794083277735 3.612794083277734 4.589794083277731 3.457 3.471 3.469 3.48 3.489 4.714 4.862794083277734 5.213794083277733 24.683 24.898 23.821 24.150000000000002 26.724 26.937 27.093 27.338 27.605 27.812 27.958000000000002 28.256 28.346 28.558 28.484 27.462 27.585 27.828 27.95 28.128 28.13 27.909 27.786 27.615000000000002 27.459 27.302 27.144000000000002 26.998 26.810000000000002 26.659 26.446 6.194 6.151 6.368 6.356 6.4110000000000005 5.853 5.308 4.855 4.933 4.946 4.703 4.565 4.566 4.683 4.721 4.743 4.743 4.74 4.75 4.765 4.767 4.766 4.787 4.793 4.797 4.79 5.315 5.7540000000000004 5.841 5.5 4.498 4.888 5.212 5.181 4.897 4.483 7.016 7.019 6.973 6.9350000000000005 6.908 7.094 7.268 7.229 7.075 7.17 8.268 7.933 8.513 8.512 8.42 7.364 4.648 4.963 5.274 5.0440000000000005 5.571 6.11 6.198 6.243 6.164 5.822 5.867 4.636 4.636 4.636 4.632 4.646 4.642 4.643 4.6290000000000004 4.638 4.641 4.634 4.639 4.617 4.631 4.639 4.641 4.675 5.721 5.735 4.654 4.646 4.6530000000000005 4.682 -9999 24.916 24.823 24.736 24.665 24.667 24.7 24.727 24.741 24.764 26.786 26.824 26.745 26.747 26.724 26.727 26.736 26.736 26.745 28.992 28.796 28.536 28.22 27.944 27.634 27.342000000000002 27.107 26.794 26.554000000000002 24.758 24.716 24.708000000000002 24.657 24.639 24.743000000000002 24.854 24.891000000000002 4.638 4.628 4.6450000000000005 4.652 4.6290000000000004 4.627 4.623 4.622 4.632 4.631 4.611 4.611 4.5920000000000005 4.586 4.601 4.609 4.613 4.6080000000000005 4.598 4.598 4.598 5.077 5.198 4.72 4.7700000000000005 4.767 4.773 6.907 7.1370000000000005 7.458 7.472 7.531000000000001 7.486 7.477 8.734 8.812 8.258000000000001 8.423 8.215 8.206 7.783 7.508 4.417 4.449 4.433 4.429 4.42 4.442 4.448 4.4510000000000005 4.491 5.607 5.745 5.765 5.746 5.755
7.883 8.165000000000001 8.029 7.642 8.613 9.072000000000001 8.171 8.075 8.459 8.156 8.289 8.447000000000001 8.486 7.429885923244733 5.734 5.988 6.102 6.139 27.299 27.656 27.603 27.526 27.732 27.136 26.72 26.985 28.466 28.376 27.656 28.913 28.794 28.828 29.442 29.562 27.979 28.490000000000002 28.594 28.384 27.954 28.283 28.742 28.766000000000002 27.004 26.669 24.474 23.580000000000002 24.293 25.632 26.159 26.329 26.225 26.485 27.032 26.981 26.657 26.582 25.707 25.989 25.918 26.558 27.245 27.234 26.958000000000002 27.005 28.736 29.321 29.492 30.358 30.319 30.641000000000002 30.967000000000002 31.073 30.905 30.918 31.327 31.400000000000002 30.991 31.002 30.622 30.045 29.693 30.221 29.769000000000002 29.485 30.078 28.746000000000002 28.684 28.146 27.379 26.912 26.625 26.012 27.245 27.082 27.611 27.542 27.976 28.162 28.361 28.966 29.462 29.054000000000002 29.092000000000002 27.923000000000002 27.63 26.625 23.011 21.653 21.736 21.723 21.724 21.315 21.454 21.322 19.959 19.935 4.961 5.054 4.912 4.405 3.42 3.423 3.412 3.371 3.398 3.396 3.403 3.4290000000000003 3.431 3.426 3.435 3.4330000000000003 3.424 3.7667940832777376 4.642794083277735 4.616794083277732 4.572794083277735 3.469 3.468 3.472 3.477 3.489 3.476 4.909794083277731 5.276794083277736 5.241794083277732 24.904 26.037 26.127 26.852 27.04 27.238 27.459 27.519000000000002 27.727 26.612000000000002 26.769000000000002 26.957 27.121000000000002 27.234 27.467000000000002 27.604 27.776 27.938 28.081 28.114 27.986 27.793 27.657 27.496000000000002 27.367 27.188 27.009 26.853 26.695 26.521 6.559 6.167 6.482 6.175 6.2 5.948 5.2940000000000005 4.814 4.905 4.918 4.6000000000000005 4.565 4.573 4.668 4.7010000000000005 4.735 4.741 4.751 4.763 4.757 4.7700000000000005 4.776 4.783 4.791 4.796 4.799 5.4590000000000005 5.763 5.828 5.9350000000000005 4.506 4.905 5.214 5.221 4.724 4.4750000000000005 7.067 7.027 7.03 6.957 6.904 7.008 6.877 7.2540000000000004 7.214 7.456032079339174 7.6530000000000005 8.379 8.372 7.871 7.409 6.15 6.128 6.1240000000000006 4.614 4.6290000000000004 4.632 5.799 5.91 5.753 4.65 4.6530000000000005 4.65 4.644 4.66 4.656 4.647 4.63 4.627 4.636 4.63 4.632 4.638 4.621 4.621 4.604 4.61 4.624 4.643 4.673 4.666 5.728 4.642 4.634 4.654 4.636 4.6850000000000005 24.944 24.897000000000002 24.731 24.665 24.657 24.691 24.704 24.736 24.77 26.815 26.812 26.738 26.746000000000002 26.737000000000002 28.021 28.524 28.767 29.063 29.156000000000002 28.917 28.616 28.304000000000002 27.984 27.685000000000002 27.467000000000002 27.138 26.892 26.562 24.743000000000002 24.724 24.686 24.671 24.638 24.696 24.832 24.904 22.333000000000002 4.622 4.638 4.655 4.642 4.614 4.624 4.622 4.635 4.634 4.616 4.633 4.593 4.599 4.606 4.612 4.61 4.602 4.61 4.5920000000000005 4.604 4.609 4.763 4.772 4.767 4.774 4.7780000000000005 6.906000000000001 7.135 7.328 7.1930000000000005 7.591 7.332 7.425 9.776 8.75 8.325 8.285 8.284 8.297 8.332 7.634 4.424 4.425 4.429 4.432 4.439 4.425 4.404 4.449 4.4510000000000005 5.539 5.711 5.736 5.72 5.718
9.048 9.094 9.299 8.09 8.627 8.807 8.348 8.612 8.839 9.467 9.356 8.418000000000001 8.821 8.655 6.13 6.05 6.098 6.208 27.342000000000002 27.558 27.687 27.422 27.135 26.863 25.816 26.91 27.502 27.195 27.757 28.052 28.064 29.249000000000002 28.755 28.065 28.402 27.996000000000002 28.049 27.764 27.167 28.159 27.229 26.654 26.931 24.202 24.851 24.556 24.992 25.663 26.466 26.152 26.016000000000002 25.924 26.395 26.745 26.892 26.441 26.319 25.078 25.811 26.428 26.784 27.102 26.884 26.805 28.751 28.898 28.984 29.562 30.316 30.895 30.906000000000002 30.612000000000002 30.681 30.970000000000002 31.134 31.209 31.349 30.988 30.519000000000002 30.346 29.935000000000002 30.321 30.261 29.862000000000002 30.023 29.993000000000002 29.082 28.199 26.655 26.86 26.703 27.644000000000002 27.36 27.126 27.62 27.325 27.949 27.936 28.355 29.022000000000002 29.359 29.515 29.157 27.755 27.12 26.916 23.239 21.707 21.568 21.559 22.214000000000002 22.207 22.16 21.362000000000002 21.433 21.638 21.554000000000002 4.491 4.421 3.438 3.435 3.408 3.414 3.4 3.374 3.396 3.408 3.4130000000000003 3.427 3.416 3.428 3.427 3.43 3.419 4.640794083277733 3.8237940832777326 3.953794083277735 4.591794083277733 3.465 3.463 3.473 3.473 3.477 4.832 5.443794083277737 5.241794083277732 25.471794083277736 26.083000000000002 26.205000000000002 26.806 27.044 27.094 25.265 25.239 24.32 26.528000000000002 26.764 26.891000000000002 27.089000000000002 27.248 27.382 27.576 27.724 27.838 28.052 28.171 28.029 27.833000000000002 27.702 27.534 27.348 27.205000000000002 27.052 26.883 26.734 26.602 25.177 6.231 6.202 6.165 6.271 6.048 5.368 4.828 4.756 4.702 4.6930000000000005 4.566 4.571 4.567 4.698 4.722 4.748 4.755 4.756 4.775 4.772 4.776 4.804 4.797 4.788 4.795 5.28 5.852 6.205 6.399 6.211 4.901 5.207 5.204 4.8950000000000005 4.479 7.0040000000000004 7.051 7.021 6.96 6.915 6.881 7.207 7.257000000000001 7.112 8.049 7.556 8.372 8.263 6.8100000000000005 7.1000000000000005 6.127 4.624 4.631 4.636 4.625 4.632 4.644 4.627 4.647 4.666 4.659 4.658 4.66 4.6530000000000005 4.654 4.634 4.624 4.626 4.616 4.628 4.635 4.613 4.609 4.602 4.583 4.609 4.628 4.6370000000000005 4.667 4.673 4.665 4.64 4.65 4.6450000000000005 4.647 4.649 24.961000000000002 24.907 24.778000000000002 24.632 24.675 24.687 24.712 24.741 24.743000000000002 24.771 26.827 26.902 27.467000000000002 27.807000000000002 28.109 28.403000000000002 28.686 28.943 29.147000000000002 28.94 28.606 28.426000000000002 28.088 27.759 27.532 27.252 26.965 26.725 24.762 24.728 24.718 24.67 24.649 24.691 24.787 24.906 24.782 4.618 4.642 4.6450000000000005 4.641 4.612 4.609 4.628 4.63 4.619 4.61 4.622 4.61 4.586 4.591 4.607 4.62 4.611 4.6080000000000005 4.61 4.597 4.613 4.616 4.627 5.23 5.164 4.781 6.889 8.627 8.682 8.284 8.833 8.790000000000001 9.540000000000001 9.790000000000001 8.502 8.136000000000001 7.96 8.261000000000001 8.192 7.902 7.285 4.415 4.429 4.434 4.44 4.434 4.436 4.404 4.424 4.431 5.3740000000000006 5.598 5.6770000000000005 5.651 5.675
9.031 9.203 9.754 8.082 10.754 8.248 8.303 8.846 9.366 9.556000000000001 9.418000000000001 8.781 8.919 8.851 6.065 6.152 6.01 6.19 27.316 26.738 26.935000000000002 27.529 26.215 26.069 25.936 25.625 26.776 26.981 26.98 27.458000000000002 27.686 27.571 27.768 27.468 26.882 27.047 27.257 27.023 26.77 25.212 25.016000000000002 24.88 25.088 25.006 25.065 24.848 24.835 25.895 26.036 26.079 26.108 25.844 25.868000000000002 25.727 26.39 26.416 26.208000000000002 24.634 25.991 26.393 26.341 26.562 26.611 26.44 26.502 27.987000000000002 29.240000000000002 28.695 30.431 30.407 30.681 30.649 30.824 30.736 31.369 31.262 31.249000000000002 31.058 30.347 30.400000000000002 30.247 30.246000000000002 30.499000000000002 29.701 29.714000000000002 29.579 29.153000000000002 27.79 26.717000000000002 26.689 27.627 27.523 27.580000000000002 27.799 27.778000000000002 27.91 29.149 29.152 28.139 29.137 29.598 29.511 27.335 27.44 27.532 26.665 23.849 23.722 21.562 21.613 22.325 22.177 21.92 21.578 21.455000000000002 21.768 21.639 21.22 20.919 21.572 3.431 3.4210000000000003 3.412 3.386 3.373 3.3810000000000002 3.4170000000000003 3.418 3.4170000000000003 3.4290000000000003 3.432 3.419 3.43 3.4250000000000003 4.632794083277737 4.218 3.999 4.5707940832777325 3.473 3.457 3.466 3.484 3.472 4.905794083277733 5.010794083277737 5.221794083277736 25.114 25.171 24.066 24.092 24.517 24.900000000000002 24.895 24.104 24.093 26.531 26.685000000000002 26.882 27.016000000000002 27.193 27.358 27.517 27.692 27.873 27.972 28.122 28.057000000000002 27.892 27.736 27.552 27.428 27.272000000000002 27.094 26.939 26.72 26.612000000000002 25.201 6.362 6.2170000000000005 6.081 6.273 6.0520000000000005 5.956 4.956 5.046 4.791 4.706 4.581 4.583 4.578 4.714 4.737 4.738 4.753 4.764 4.7780000000000005 4.776 4.788 4.792 4.799 4.795 4.796 6.242032079339175 6.008 6.4510000000000005 6.547 6.304 4.849 5.168 5.175 5.034 4.591 7.056 7.014 7.041 6.939 6.916 6.923 7.202 7.45 7.259 7.095 6.839 6.859 6.871 7.032 5.438 4.631 4.634 4.631 4.63 4.643 4.6610000000000005 4.647 4.654 4.647 4.67 4.659 4.658 4.651 4.647 4.636 4.6290000000000004 4.624 4.615 4.62 4.613 4.622 4.623 4.593 4.5680000000000005 4.577 4.585 4.625 4.642 4.641 4.681 5.722 4.6690000000000005 4.641 4.647 4.643 5.463 -9999 24.927 24.795 24.708000000000002 24.659 24.685000000000002 24.703 24.713 24.758 26.597 26.937 27.187 27.301000000000002 27.778000000000002 28.012 28.344 28.634 28.873 29.136 29.008 28.681 28.372 28.179000000000002 27.888 27.464000000000002 27.299 27.008 26.688 24.766000000000002 24.741 24.713 24.684 24.659 24.647000000000002 24.756 24.894000000000002 24.917 4.62 4.622 4.6450000000000005 4.6450000000000005 4.616 4.612 4.613 4.618 4.614 4.626 4.61 4.615 4.595 4.61 4.619 4.616 4.618 4.614 4.5920000000000005 4.614 4.634 4.626 4.6290000000000004 4.641 4.844 4.869 7.621 8.872 8.902000000000001 9.348 9.406 9.527000000000001 9.382 8.946 8.324 7.854 7.78 7.982 7.2860000000000005 7.231 7.237 4.418 4.431 4.433 4.431 4.447 4.441 4.4350000000000005 4.416 4.43 4.446 5.4510000000000005 5.587 5.575 5.57
8.805 8.715 10.936 11.163 11.205 8.687 8.339 8.652000000000001 9.363 9.264 9.252 8.995000000000001 8.243 5.772 6.0040000000000004 5.7090000000000005 6.181 6.013 25.382 27.055 26.102 26.101 26.567 26.490000000000002 24.999 25.418 26.159 26.301000000000002 26.873 26.7 27.654 27.756 27.948 27.66 27.092000000000002 24.681 27.071 26.44 24.307000000000002 25.22 24.785 24.629 25.072 24.785 25.05 25.042 25.242 25.598 26.054000000000002 26.058 25.757 25.426000000000002 25.894000000000002 25.92 26.247 26.223 24.691 -9999 26.096 26.358 26.168 26.176000000000002 26.278000000000002 26.554000000000002 26.424 26.325 28.334 28.249000000000002 28.725 29.382 30.336000000000002 30.204 30.141000000000002 30.391000000000002 31.024 31.103 30.074 30.244 29.983 30.294 30.161 30.357 30.293 29.411 29.612000000000002 29.534 29.438000000000002 26.517 26.496000000000002 27.527 27.586000000000002 27.63 27.784 27.871000000000002 27.748 27.92 28.999000000000002 29.002 28.604 29.243000000000002 29.596 29.361 28.594 27.698 27.842000000000002 27.746000000000002 23.996000000000002 23.706 22.035 21.839000000000002 22.453 22.424 22 21.51 21.582 21.738 21.607 21.296 21.128 21.241 3.4450000000000003 3.424 3.416 3.394 3.361 3.391 3.398 3.4090000000000003 3.42 3.415 3.4250000000000003 3.438 3.4130000000000003 3.4210000000000003 4.534794083277731 3.2287940832777338 4.329 4.548794083277734 3.468 3.462 3.472 3.46 3.492 4.724 4.926794083277734 5.088794083277733 24.78 25.189 24.072 24.080000000000002 24.103 24.108 24.093 24.108 24.125 26.511 26.665 26.818 26.977 27.150000000000002 27.306 27.484 27.629 27.761 27.941 28.12 28.134 27.923000000000002 27.826 27.615000000000002 27.419 27.317 25.195 25.154 25.135 6.323 6.3830320793391735 6.38 6.24 6.134 6.014 6.208 6.215 5.808 5.058 4.944 4.883 4.595 4.586 4.583 4.652 4.727 4.752 4.759 4.768 4.774 4.792 4.789 4.799 4.789 4.799 4.806 4.986032079339175 5.765 6.417 6.198 5.396 4.49 4.496 4.486 4.471 4.465 7.096 7.037 7.009 7.0200000000000005 6.901 6.941 6.902 7.331 7.3870000000000005 7.179 6.433 5.521 5.336 5.465 5.494 5.432 4.622 4.627 4.638 4.652 4.678 4.683 4.662 4.663 4.655 4.6530000000000005 4.666 4.644 4.636 4.623 4.616 4.63 4.619 4.614 4.611 4.609 4.598 4.573 4.566 4.571 4.587 4.602 4.647 4.64 4.658 5.715 5.718 4.647 4.646 4.649 5.275 -9999 24.984 24.823 24.719 24.638 24.666 24.703 24.723 24.743000000000002 26.598 26.771 27.149 27.415 27.61 27.961000000000002 28.255 28.435000000000002 28.857 29.146 29.14 28.767 28.446 28.162 27.928 27.62 27.367 27.096 26.828 24.743000000000002 24.751 24.708000000000002 24.678 24.663 24.645 24.731 24.856 24.915 4.621 4.63 4.628 4.642 4.614 4.606 4.601 4.606 4.609 4.616 4.6000000000000005 4.589 4.606 4.616 4.6290000000000004 4.61 4.614 4.628 4.626 4.623 4.62 4.632 4.62 4.651 4.654 7.835 8.143 8.945 9.159 9.413 9.701 9.533 9.464 9.213000000000001 8.598 7.969 7.3020000000000005 7.639 7.62 7.519 7.34 4.423 4.446 4.439 4.434 4.45 4.446 4.442 4.441 4.444 4.444 4.4430000000000005 5.228 4.699 5.408
8.991 9.293000000000001 10.756 11.122 11.15 8.927 9.002 8.855 8.782 8.791 8.959 8.913 8.26 7.3020000000000005 5.83 5.711 4.597 4.799 5.123 25.490000000000002 26.241 26.281 26.584 26.71 26.068 24.907 26.278000000000002 26.23 25.491 26.458000000000002 27.717000000000002 27.775000000000002 27.46 27.119 27.166 24.718 24.869 24.458000000000002 24.605 25.197 25.214000000000002 25 24.719 24.981 25.04 24.976 25.533 25.581 26.05 25.962 25.664 25.67 25.304000000000002 25.301000000000002 25.55 25.657 25.266000000000002 23.688 25.862000000000002 26.358 26.307000000000002 26.089000000000002 27.03 27.117 26.898 26.559 27.601 27.878 28.791 29.304000000000002 30.262 30.251 29.912 30.717000000000002 30.877 30.718 29.895 29.924 29.810000000000002 29.961000000000002 29.439 30.297 30.278000000000002 28.942 29.338 29.162 28.322 28.22 26.561 27.432000000000002 27.567 27.371000000000002 27.392 29.015 28.993000000000002 29.466 29.497 28.830000000000002 28.302 28.652 28.756 28.484 28.522000000000002 28.371000000000002 27.899 27.775000000000002 27.869 23.169 21.958000000000002 21.859 21.717 21.869 22.054000000000002 21.998 21.945 21.542 21.417 21.052 21.147000000000002 21.176000000000002 3.446 3.43 3.424 3.3970000000000002 3.3770000000000002 3.386 3.3970000000000002 3.406 3.4 3.4210000000000003 3.4090000000000003 3.418 3.4290000000000003 3.4210000000000003 4.6077940832777315 4.622794083277732 4.308 4.453794083277735 4.382 3.451 3.474 3.465 3.459 3.469 4.904794083277736 5.016794083277738 5.1757940832777365 25.148 25.102 24.089000000000002 24.108 24.112000000000002 24.117 24.122 24.108 24.119 26.603 26.812 26.932000000000002 27.121000000000002 27.285 27.402 27.604 27.768 27.902 29.373 29.424 27.97 27.725 25.159 25.098 1.595 1.594 6 6.065 6.171 6.253 6.183 6.204 6.21 5.918 5.938 5.928 5.034 5.045 4.876 4.899 4.583 4.586 4.604 4.655 4.737 4.753 4.773 4.7780000000000005 4.769 4.787 4.8020000000000005 4.796 4.808 4.8020000000000005 4.806 4.84 5.532 5.9670000000000005 5.982 5.218 4.491 4.48 4.476 4.473 4.466 4.46 7.055 7.059 7.005 7.017 6.979 6.905 7.63 6.765000000000001 6.969 6.3180000000000005 5.062 5.268 5.393 5.409 5.437 4.649 4.644 4.667 4.683 4.679 4.6770000000000005 4.673 4.651 4.6530000000000005 4.64 4.635 4.626 4.632 4.624 4.628 4.617 4.614 4.601 4.613 4.6000000000000005 4.606 4.577 4.571 4.573 4.585 4.615 4.622 4.641 4.663 4.66 4.635 4.64 4.649 4.648 4.694 5.251 24.956 24.905 24.774 24.653000000000002 24.676000000000002 24.675 24.72 24.741 24.755 26.792 27.035 27.332 27.605 27.846 28.182000000000002 28.478 28.673000000000002 29.137 29.153000000000002 28.842000000000002 28.526 28.32 28.027 27.693 27.413 27.151 26.894000000000002 26.601 24.736 24.714000000000002 24.679000000000002 24.671 24.665 24.684 24.84 24.925 22.248 4.618 4.638 4.633 4.624 4.605 4.594 4.6080000000000005 4.612 4.612 4.617 4.616 4.603 4.612 4.606 4.612 4.609 4.62 4.647 4.631 4.6290000000000004 4.628 4.647 4.643 6.9350000000000005 8.061 8.594 9.104000000000001 9.323 9.649000000000001 9.811 9.639 9.603 9.493 9.348 8.345 7.574 7.548 7.697 7.718 6.664 4.42 4.432 4.445 4.441 4.448 4.433 4.4510000000000005 4.439 4.436 4.44 4.4510000000000005 4.439 4.447 4.457
8.682 9.065 9.221 11.144 11.159 9.007 8.803 8.601 8.621 8.147 8.765 8.743 7.482 7.251 5.25 4.727 4.87 4.425 4.64 4.583 4.097 25.984 26.448 7.011 26.119 25.623 25.075 25.44 25.683 25.563 26.446 26.908 25.05 26.393 22.279 22.38 23.919 24.037 24.496000000000002 24.783 25.175 24.781 24.902 24.815 24.18 23.756 25.796 25.862000000000002 25.407 25.43 25.572 25.37 25.273 25.737000000000002 26.005 26.044 25.336000000000002 23.684 25.109 25.852 26.078 26.481 27.068 27.218 26.795 26.458000000000002 26.509 26.447 28.491 29.497 29.990000000000002 29.991 29.497 31.053 30.572 30.543 29.495 29.867 29.889 29.665 30.054000000000002 29.93 29.695 29.613 29.039 28.409 28.273 27.96 26.534 27.476 27.446 27.227 27.291 29.428 29.188 29.55 29.641000000000002 29.143 29.203 29.225 29.058 28.608 28.35 28.007 28.186 27.298000000000002 27.006 27.008 21.97 21.906 21.898 21.877 21.957 22.009 21.842 21.244 20.822 20.932000000000002 20.625 18.936 3.427 3.4330000000000003 3.431 3.41 3.3770000000000002 3.371 3.369 3.403 3.403 3.4090000000000003 3.435 3.431 3.423 3.432 3.415 4.591794083277733 4.580794083277738 3.971794083277736 4.423 3.462 3.4490000000000003 3.462 3.471 3.467 4.975794083277734 4.993794083277734 5.029794083277736 25.178 25.166 24.332 24.511 24.293 24.589000000000002 24.141000000000002 24.101 24.131 26.542 26.707 26.897000000000002 27.082 27.223 27.444 27.475 27.738 25.173000000000002 25.157 29.361 2.081 3.21 3.258 1.582 1.605 1.607 5.908 5.987 5.917 6.089032079339177 6.098 6.3950000000000005 6.125 6.313 6.187 5.583 4.888 4.828 4.781 4.689 4.9100320793391745 4.599 4.597 4.611 4.736 4.765 4.776 4.782 4.7860000000000005 4.793 4.803 4.812 4.798 4.808 4.821 4.809 5.5760000000000005 5.41 5.738 5.299 4.656 4.486 4.487 4.47 4.482 4.466 6.9910000000000005 7.061 7.029 6.985 6.947 6.899 6.793 6.162032079339177 5.982 5.021 5.069 5.003 5.4510000000000005 5.524 5.466 4.672 4.667 4.665 4.686 4.681 4.6690000000000005 4.666 4.65 4.657 4.648 4.625 4.618 4.634 4.634 4.605 4.626 4.622 4.602 4.605 4.602 4.597 4.589 4.569 4.589 4.582 4.602 4.624 4.642 4.642 4.65 5.71 4.633 4.648 4.658 4.643 4.765 24.957 24.876 24.779 24.704 24.642 24.676000000000002 24.714000000000002 24.724 24.776 26.685000000000002 26.968 27.256 27.472 27.843 28.086000000000002 28.39 28.646 28.934 29.13 28.979 28.624000000000002 28.331 28.1 27.833000000000002 27.498 27.311 27.001 26.669 24.75 24.73 24.693 24.671 24.628 24.681 24.763 24.899 24.915 4.601 4.638 4.633 4.627 4.6000000000000005 4.599 4.609 4.611 4.627 4.621 4.604 4.607 4.613 4.601 4.591 4.599 4.625 4.634 4.634 4.643 4.628 4.634 4.652 7.873 8.49 8.753 9.34 9.432 9.535 9.746 9.663 9.659 9.539 9.461 8.977 8.81 9.05 7.696 7.3420000000000005 4.454 4.425 4.43 4.428 4.433 4.441 4.433 4.436 4.44 4.444 4.418 4.441 4.436 4.448 4.452
8.926 8.729000000000001 9.513 9.364 8.722 8.346 8.882 8.294 8.683 8.437 7.433 7.9990000000000006 7.509 4.859 5.25 5.1930000000000005 4.865 4.4030000000000005 4.9190000000000005 4.513 4.222 4.3180000000000005 4.571 7.003 5.486 25.769000000000002 25.310000000000002 25.265 25.861 25.803 25.563 25.38 25.447 25.312 22.111 22.217 23.404 24.26 24.503 24.619 24.662 24.217 24.315 24.045 24.073 23.969 23.724 25.75 24.809 24.992 25.055 25.416 25.707 25.900000000000002 26.299 26.307000000000002 25.348 25.462 24.911 25.637 26.229 26.93 27.018 26.835 26.795 26.359 26.405 26.744 27.047 29.442 29.417 29.238 28.501 29.404 29.926000000000002 30.128 30.374000000000002 29.669 29.580000000000002 29.584 29.863 30.153000000000002 29.579 27.223 27.787 27.832 28.088 27.865000000000002 27.451 27.491 28.025000000000002 27.744 27.716 29.391000000000002 29.381 29.281000000000002 29.61 29.066 28.666 28.889 28.952 28.531000000000002 28.833000000000002 28.209 27.295 27.218 27.281 27.013 25.303 21.517 22.696 21.67 21.14 21.806 21.822 21.342 21.334 21.304000000000002 19.32 19.1 3.489 3.448 3.4210000000000003 3.407 3.4050000000000002 3.374 3.378 3.3770000000000002 3.3930000000000002 3.395 3.4090000000000003 3.424 3.427 3.423 3.426 4.389 3.2267940832777313 3.213794083277733 3.3930000000000002 3.448 3.454 3.447 3.456 3.467 4.818794083277737 5.181794083277737 4.961794083277731 25.172 25.162 24.124 24.632 24.563 24.580000000000002 24.108 25.157 25.243000000000002 26.559 26.691 26.839000000000002 27.015 25.182000000000002 25.146 25.124 2.165 4.666 2.074 2.068 2.07 3.2960000000000003 3.279 1.588 1.598 1.605 6.127 5.9910000000000005 6.271 6.063 6.053 6.3790000000000004 5.971 6.232 6.211 6.155 4.902 4.799 4.5920000000000005 5.294032079339175 5.503032079339178 4.587 4.595 4.59 4.722 4.756 4.771 4.777 4.788 4.7940000000000005 4.7860000000000005 4.804 4.798 4.791 4.813 4.8180000000000005 4.798 4.882 4.782 4.916 4.774 4.491 4.484 4.4750000000000005 4.477 4.47 7.048 7.026 6.997 6.978 6.969 6.949 6.865 4.938 5.031 8.688 4.948 6.188 7.095 5.484 5.47 4.678 4.679 4.675 4.664 4.684 4.674 4.652 4.657 4.654 4.636 4.632 4.634 4.601 4.619 4.615 4.61 4.622 4.609 4.597 4.609 4.613 4.598 4.596 4.59 4.595 4.5920000000000005 4.605 4.618 4.64 4.67 5.712 4.64 4.639 4.651 4.66 4.631 -9999 24.992 24.811 24.684 24.639 24.671 24.713 24.722 24.748 26.626 26.806 27.203 27.478 27.731 28.029 28.305 28.577 28.84 29.153000000000002 29.054000000000002 28.686 28.391000000000002 28.106 27.89 27.583000000000002 27.236 27.064 26.742 24.755 24.722 24.706 24.687 24.654 24.632 24.766000000000002 24.887 24.89 4.613 4.621 4.627 4.628 4.601 4.594 4.614 4.609 4.618 4.628 4.606 4.606 4.625 4.611 4.622 4.622 4.617 4.619 4.619 4.641 4.652 4.658 7.932 8.334 8.816 8.897 9.18 9.5 9.526 9.674 9.682 9.694 9.617 9.597 9.131 9.159 8.828 7.428 7.614 7.327 4.418 4.433 4.4350000000000005 4.439 4.441 4.449 4.429 4.428 4.421 4.442 4.441 4.437 4.425 4.441
8.818 8.081 8.494 8.633000000000001 9.076 9.519 8.877 8.721 7.7010000000000005 8.336 7.559 7.4990000000000006 5.878 5.688 5.365 4.119 4.582 4.582 4.654 5.0360000000000005 5.399 5.654 4.4270000000000005 4.782 4.965 7.432885923244733 24.953 25.377 25.319 25.842000000000002 25.976 25.587 25.204 25.094 21.916 23.159 24.543 24.560000000000002 24.283 23.971 23.999 24.349 24.365000000000002 23.971 24.073 24.003 24.036 25.14 25.769000000000002 25.594 25.403000000000002 26.332 26.269000000000002 26.047 26.024 25.805 25.912 25.791 25.289 25.43 26.13 26.436 26.724 26.823 26.641000000000002 26.466 27.23 27.057000000000002 27.301000000000002 27.532 27.448 28.485 28.452 29.458000000000002 30.012 30.115000000000002 30.245 29.555 29.546 29.172 29.729 29.745 29.695 29.862000000000002 30.316 29.979 27.409 27.172 27.275000000000002 27.509 28.11 28.352 28.150000000000002 28.665 29.069 29.103 28.831 28.885 28.997 29.559 29.298000000000002 28.46 28.817 28.081 27.557000000000002 27.438 27.405 26.783 25.062 23.092 22.88 23.215 21.033 20.994 21.715 21.929000000000002 21.295 20.878 19.829 17.478 17.189 3.465 3.416 3.399 3.396 3.359 3.38 3.3930000000000002 3.3850000000000002 3.395 3.398 3.399 3.415 3.427 3.4170000000000003 4.3950000000000005 4.431 4.766 4.722 4.225 3.4450000000000003 3.4490000000000003 3.454 3.458 4.762794083277733 4.893794083277733 4.9897940832777365 24.728 25.173000000000002 25.047 25.193 25.199 25.2 25.222 25.211000000000002 25.225 25.204 25.213 25.125 25.076 3.086 2.729 2.491 3.662032079339177 3.7560000000000002 3.596 3.4490000000000003 3.295 1.895 1.726 1.595 1.591 1.577 5.287 6.146 6.191 6.094 6.056 6.059 6.081 4.747 6.13 5.923 4.575 4.577 4.588 4.588 4.606 4.6000000000000005 4.588 4.585 4.6290000000000004 4.739 4.822 9.201 4.771 4.789 4.785 4.782 4.789 4.8020000000000005 4.7860000000000005 4.7940000000000005 4.821 4.813 4.78 4.82 4.756 4.513 4.507 4.488 4.489 4.478 7.088 7.056 7.027 6.992 6.9590000000000005 6.9190000000000005 6.875 6.833 5.3100000000000005 8.738 8.059000000000001 8.001 7.985 5.404 5.44 4.811 4.684 4.688 4.6770000000000005 4.665 4.664 4.671 4.657 4.652 4.648 4.631 4.627 4.62 4.615 4.611 4.6080000000000005 4.6080000000000005 4.622 4.618 4.605 4.597 4.611 4.5920000000000005 4.604 4.6080000000000005 4.586 4.61 4.622 4.646 4.6690000000000005 5.723 5.699 4.64 4.639 4.656 4.672 -9999 24.967 24.82 24.734 24.649 24.672 24.675 24.732 24.734 26.562 26.878 27.107 27.44 27.650000000000002 27.998 28.234 28.485 28.815 29.155 29.084 28.826 28.483 28.189 27.952 27.651 27.34 27.078 26.856 26.574 24.712 24.713 24.682000000000002 24.652 24.64 24.713 24.849 24.922 4.605 4.604 4.635 4.632 4.604 4.602 4.623 4.623 4.616 4.616 4.611 4.622 4.61 4.62 4.63 4.625 4.6450000000000005 4.61 4.613 4.628 4.641 4.646 8.282 8.417 8.779 9.092 9.286 9.501 9.558 9.719 9.774000000000001 9.686 9.645 9.602 9.062 9.133000000000001 8.833 7.4350000000000005 7.3790000000000004 7.33 4.422 4.4350000000000005 4.439 4.4350000000000005 4.438 4.44 4.4190000000000005 4.4190000000000005 4.4190000000000005 4.423 4.433 4.442 4.424 4.43
8.032 7.761 8.01 8.904 9.733 9.987 9.248 10.288 9.094 9.343 7.72 7.683 6.215 5.048 5.409 4.705 4.55 4.603 5 4.963 4.763 4.148 4.277 4.671 4.517 22.258 22.583000000000002 22.904 25.207 23.295 25.52 25.594 24.729 23.433 21.569 21.544 24.528000000000002 24.578 24.43 23.995 24.092 23.651 23.184 22.964000000000002 23.651 23.998 24.711000000000002 25.155 25.804000000000002 25.859 25.726 26.295 25.908 25.939 25.499 25.907 26.154 25.855 25.524 25.073 26.039 26.138 26.956 27.060000000000002 26.815 26.839000000000002 26.990000000000002 26.977 27.301000000000002 27.529 27.612000000000002 27.676000000000002 28.044 28.505 28.257 29.924 30.42 30.212 29.181 28.763 28.954 29.669 29.716 29.532 30.174 30.297 28.257 27.485 27.247 27.073 27.887 28.38 28.394000000000002 28.308 28.702 29.03 28.931 29.085 29.166 29.262 29.307000000000002 28.822 28.856 28.819 28.542 27.233 27.237000000000002 27.155 24.935000000000002 23.003 23.26 23.632 21.162 21.21 21.498 21.861 21.85 20.839000000000002 19.88 17.599 17.23 3.459 3.424 3.414 3.384 3.36 3.359 3.372 3.3810000000000002 3.387 3.402 3.406 3.416 3.422 3.428 4.355 4.399 4.738 4.706 3.434 3.4490000000000003 3.4490000000000003 3.45 3.4490000000000003 3.443 5.053794083277737 4.894794083277738 23.251 25.218 25.241 25.234 25.206 25.212 25.209 24.973 24.75 3.5260000000000002 3.547 3.537 4.534 4.229032079339177 4.365 4.136 4.017 3.712 2.404 2.209 2.05 1.849 1.728 1.607 1.581 4.54 5.859 6.011 6.064 5.8870000000000005 4.479 4.5120000000000005 4.534 4.572 4.562 4.5760000000000005 4.589 4.596 4.5600000000000005 4.586 4.602 4.589 4.594 4.583 4.579 9.214 9.316 9.203 4.777 4.804 4.78 4.789 4.792 4.784 4.811 4.835 4.816 5.37 5.371 5.3740000000000006 5.964 5.412 4.497 4.506 4.495 4.907 4.479 7.0120000000000005 7.071 7.007000000000001 6.962 6.957 6.883 6.811 8.892 9.022 8.249 8.875 8.892 8.462 5.418 5.222 4.668 4.676 4.6770000000000005 4.667 4.671 4.658 4.652 4.6450000000000005 4.654 4.643 4.63 4.613 4.617 4.613 4.618 4.622 4.617 4.63 4.619 4.605 4.6000000000000005 4.615 4.605 4.606 4.593 4.604 4.618 4.628 4.6610000000000005 4.659 5.731 4.636 4.65 4.644 4.643 4.67 24.94 24.888 24.755 24.674 24.674 24.687 24.707 24.744 24.757 26.785 27.022000000000002 27.307000000000002 27.511 27.879 28.132 28.464000000000002 28.738 28.988 29.17 28.868000000000002 28.545 28.236 28.019000000000002 27.776 27.412 27.125 26.857 26.579 24.739 24.691 24.707 24.666 24.582 24.728 24.793 24.912 23.156 4.598 4.632 4.626 4.619 4.589 4.594 4.609 4.606 4.625 4.614 4.617 4.61 4.625 4.623 4.614 4.621 4.624 4.617 4.613 4.666 4.647 8.291 8.365 8.714 9.018 9.177 9.384 9.683 9.775 9.861 10.053 9.814 9.609 9.277000000000001 9.13 9.045 5.585 5.55 4.428 4.4430000000000005 4.44 4.441 4.446 4.428 4.4270000000000005 4.42 4.4270000000000005 4.412 4.422 4.434 4.423 4.41 4.408
7.95 7.831 8.122 9.191 10.909 8.875 10.073 10.346 9.957 9.328 9.363 9.054 6.306 8.8 4.384 4.124 4.578 4.579 5.4110000000000005 5.12 4.146 4.815 4.132 4.284 4.572 4.8020000000000005 4.462 22.878 4.567 23.62 23.822 23.588 23.541 4.066 21.286 21.426000000000002 24.63 24.489 24.284 24.314 24.457 23.382 22.714000000000002 22.439 23.802 24.489 25.567 25.725 25.489 25.879 25.865000000000002 25.767 25.552 25.516000000000002 25.48 25.316 26.39 25.842000000000002 25.532 25.427 25.469 26.01 25.973 26.117 25.983 26.845 27.003 27.25 27.986 27.873 27.833000000000002 28.150000000000002 28.39 28.362000000000002 28.582 29.936 30.523 29.988 29.848 30.159 28.467000000000002 28.823 29.528000000000002 29.653000000000002 29.649 30.046 28.302 28.321 27.118000000000002 26.958000000000002 27.629 27.617 28.125 28.268 28.671 28.772000000000002 28.917 29.437 29.34 29.317 29.315 28.744 28.973 29.018 28.650000000000002 27.102 27.087 26.949 23.555 23.574 23.66 23.841 21.498 21.321 21.366 21.366 21.411 19.839000000000002 19.749 18.088 18.189 17.869 3.395 3.41 3.406 3.362 3.366 3.362 3.374 3.3850000000000002 3.387 3.4010000000000002 3.416 3.423 3.4090000000000003 3.4250000000000003 3.577 4.531 4.471 4.337 3.448 3.439 3.444 3.455 3.4490000000000003 4.74 4.8887940832777375 23.106 23.171 4.922 3.896 3.887 3.947794083277735 3.509 3.517 3.525 3.533 3.544 4.682 4.619 3.336 3.069 2.964 8.076 8.134 2.494 2.325 2.126 4.331 5.316 5.323 5.2860000000000005 5.336 5.375 4.349 4.381 4.406 4.468 4.499 4.522 5.216 5.89 4.577 4.573 4.591 4.589 4.58 4.5920000000000005 4.591 4.573 4.586 8.283 9.384 9.438 9.26 4.789 9.151 4.822 4.821 5.056 5.1770000000000005 4.853 5.228 5.327 5.336 5.515 5.578 6.43 6.3580000000000005 6.203 5.191 5.223 4.9190000000000005 4.744 7.074 7 7.0200000000000005 6.941 6.92 6.9 8.49 8.401 9.165000000000001 9.061 8.913 8.828 8.44 8.433 5.016 4.672 4.668 4.6690000000000005 4.649 4.647 4.646 4.643 4.649 4.66 4.633 4.6290000000000004 4.628 4.616 4.635 4.632 4.6290000000000004 4.624 4.62 4.641 4.616 4.6080000000000005 4.612 4.6290000000000004 4.61 4.6000000000000005 4.6080000000000005 4.613 4.634 4.647 4.662 5.704 4.632 4.628 4.656 4.655 -9999 25.026 24.944 24.753 24.683 24.647000000000002 24.68 24.716 24.722 24.729 26.674 26.991 27.246000000000002 27.508 27.801000000000002 28.115000000000002 28.377 28.609 28.961000000000002 29.14 28.814 28.664 28.318 27.982 27.848 27.495 27.225 27.016000000000002 26.718 24.741 24.722 24.689 24.666 24.658 24.655 24.785 24.904 24.05 4.587 4.625 4.624 4.623 4.59 4.589 4.614 4.6000000000000005 4.613 4.614 4.612 4.6080000000000005 4.602 4.621 4.606 4.595 4.611 4.613 4.616 4.622 8.929 9.185 9.387 8.404 8.921 9.302 9.519 9.614 9.8 10.095 9.869 9.862 9.751 9.36 9.046 8.086 5.515 6.623 6.765000000000001 4.4590000000000005 4.432 4.43 4.449 4.428 4.425 4.413 4.406 4.413 4.408 4.416 4.42 4.407 4.398
8.41 8.002 8.735 9.753 10.866 10.825000000000001 10.991 11.858 12.075000000000001 9.094 9.421 9.342 8.704 8.85 4.37 4.114 4.128 4.107 5.541 5.566 4.998 4.84 5.104 4.1610000000000005 4.667 4.6530000000000005 4.167 4.15 4.135 4.103 21.719 4.09 4.063 4.056 4.037 4.039 23.305 23.693 23.8 24.118000000000002 24.466 23.438 23.064 23.065 23.723 24.499 24.617 25.601 25.601 25.706 25.843 25.798000000000002 25.741 25.613 25.706 25.314 25.728 25.706 25.572 24.409 25.331 25.464000000000002 25.674 25.952 25.182000000000002 26.715 26.781 27.192 27.821 27.768 28.305 28.178 27.995 29.644000000000002 29.424 29.749000000000002 29.992 29.259 30.043 30.154 27.958000000000002 28.581 29.444 29.411 29.213 29.48 29.423000000000002 28.048000000000002 26.693 27.19 27.306 27.492 27.383 27.274 27.93 28.441 28.298000000000002 29.454 29.342000000000002 28.363 29.152 28.625 28.053 28.988 27.414 27.319 25.987000000000002 25.627 24.208000000000002 23.613 23.54 22.296 22.182000000000002 21.474 21.495 22.038 22.34 21.703 21.704 19.072 18.993000000000002 18.226 17.615000000000002 17.61 3.4050000000000002 3.3930000000000002 3.344 3.363 3.373 3.382 3.383 3.386 3.404 3.408 3.4130000000000003 3.411 4.146 4.437 4.397 3.375 3.4210000000000003 3.434 3.447 3.4410000000000003 3.451 3.4450000000000003 4.583794083277738 3.457 3.467 3.479 3.471 3.466 3.479 3.494 3.513 3.5180000000000002 3.532 3.543 3.547 3.454 3.3080000000000003 3.137 3.033 10.082 11.174 11.705032079339176 9.906 8.134 10.034 5.232 4.178 4.191 4.268 4.291 4.315 4.373 4.416 4.444 4.502 4.534 4.551 5.87 4.5840000000000005 4.578 5.694 4.573 4.5840000000000005 4.5680000000000005 4.58 4.582 8.532 7.588 8.471032079339174 9.161 9.17 9.163 9.493 9.507 5.3420000000000005 5.327 5.344 5.362 5.423 5.524 5.317 5.314 5.2410000000000005 6.211 6.381 6.649 4.905 5.23 5.229 4.904 4.488 7.03 7.001 6.974 6.939 6.871 8.132 9.315 9.294 9.139 8.517 8.641 8.540000000000001 5.362 5.096 4.664 4.656 4.663 4.667 4.66 4.638 4.651 4.634 4.64 4.644 4.624 4.638 4.633 4.628 4.628 4.621 4.631 4.6290000000000004 4.633 4.619 4.604 4.612 4.607 4.614 4.614 4.595 4.627 4.627 4.662 4.675 5.703 4.646 4.646 4.641 4.649 4.666 24.964000000000002 24.917 24.819 24.674 24.679000000000002 24.683 24.693 24.732 24.744 26.641000000000002 26.896 27.075 27.448 27.757 28.002 28.326 28.558 28.862000000000002 29.144000000000002 29.031000000000002 28.706 28.44 28.150000000000002 27.766000000000002 27.602 27.276 26.964000000000002 26.779 24.755 24.721 24.69 24.699 24.646 24.613 24.764 24.897000000000002 24.914 4.579 4.627 4.62 4.624 4.583 4.574 4.601 4.6000000000000005 4.607 4.61 4.614 4.613 4.599 4.613 4.612 4.612 4.606 8.41 9.286 9.121 9.177 9.9 9.836 10.184000000000001 9.769 9.204 9.373 9.519 9.674 9.788 9.788 9.816 9.486 9.365 8.895 6.455 6.369 7.045 6.559 4.462 4.441 4.433 4.429 4.433 4.433 4.422 4.424 4.414 4.407 4.4110000000000005 4.402 4.405 4.407
